4.03E+02,4.03E+02,4.03E+02,4.03E+02,4.03E+02,4.03E+02,4.03E+02,4.03E+02,4.03E+02,4.03E+02,4.03E+02,4.02E+02,4.02E+02,4.02E+02,4.02E+02,4.02E+02,4.02E+02,4.02E+02,4.02E+02,4.02E+02,4.02E+02,4.02E+02,4.02E+02,4.02E+02,4.02E+02,4.02E+02,4.02E+02,4.02E+02,4.02E+02,4.02E+02,4.02E+02,4.02E+02,4.02E+02,4.02E+02,4.02E+02,4.02E+02,4.02E+02,4.02E+02,4.02E+02,4.02E+02,4.02E+02,4.01E+02,4.01E+02,4.01E+02,4.01E+02,4.01E+02,4.01E+02,4.01E+02,4.01E+02,4.00E+02,4.00E+02,4.00E+02,4.00E+02,4.00E+02,3.99E+02,3.99E+02,3.99E+02,3.99E+02,3.99E+02,3.99E+02,3.99E+02,3.99E+02,3.99E+02,3.99E+02,3.99E+02,3.99E+02,3.99E+02,3.99E+02,3.99E+02,3.99E+02,3.99E+02,3.99E+02,3.99E+02,3.99E+02,3.99E+02,3.99E+02,3.99E+02,3.99E+02,3.99E+02,3.99E+02,3.99E+02,3.99E+02,3.99E+02,3.99E+02,4.00E+02,4.00E+02,4.00E+02,4.00E+02,4.00E+02,4.00E+02,4.00E+02,4.00E+02,4.00E+02,4.00E+02,4.00E+02,4.00E+02,4.00E+02,4.01E+02,4.01E+02,4.01E+02,4.01E+02,4.01E+02,4.01E+02,4.01E+02,4.01E+02,4.01E+02,4.01E+02,4.01E+02,4.01E+02,4.01E+02,4.01E+02,4.01E+02,4.01E+02,4.01E+02,4.01E+02,4.01E+02,4.01E+02,4.01E+02,4.00E+02,4.00E+02,4.00E+02,3.99E+02,3.99E+02,3.99E+02,3.99E+02,3.99E+02,3.99E+02,3.99E+02,3.98E+02,3.98E+02,0.00E+00,0.00E+00,0.00E+00,0.00E+00,0.00E+00,0.00E+00,0.00E+00,0.00E+00,0.00E+00,0.00E+00,0.00E+00,0.00E+00,0.00E+00,0.00E+00,0.00E+00,0.00E+00,0.00E+00,0.00E+00,0.00E+00,3.39E+02,3.39E+02,3.38E+02,3.37E+02,3.37E+02,3.37E+02,3.37E+02,3.36E+02,3.35E+02,3.35E+02,3.34E+02,3.34E+02,3.33E+02,3.33E+02,3.33E+02,3.32E+02,3.32E+02,3.31E+02,3.31E+02,3.31E+02,3.30E+02,3.30E+02,3.29E+02,3.29E+02,3.29E+02,3.28E+02,3.28E+02,3.27E+02,3.27E+02,3.27E+02,3.26E+02,3.26E+02,3.25E+02,3.25E+02,3.25E+02,3.25E+02,3.24E+02,3.24E+02,3.24E+02,3.24E+02,3.24E+02,3.23E+02,3.23E+02,3.23E+02,3.23E+02,3.23E+02,3.22E+02,3.22E+02,3.22E+02,3.22E+02,3.22E+02,3.21E+02,3.21E+02,3.21E+02,3.21E+02,3.21E+02,3.21E+02,3.21E+02,3.21E+02,3.21E+02,3.21E+02,3.20E+02,3.20E+02,3.20E+02,3.20E+02,3.20E+02,3.20E+02,3.20E+02,3.20E+02,3.20E+02,3.20E+02,3.20E+02,3.20E+02,3.20E+02,3.20E+02,3.20E+02,3.20E+02,3.20E+02,3.20E+02,3.20E+02,3.20E+02,3.20E+02,3.20E+02,3.19E+02,3.19E+02,3.19E+02,3.19E+02,3.20E+02,3.20E+02,3.20E+02,3.20E+02,3.20E+02,3.20E+02,3.20E+02,3.20E+02,3.21E+02,3.21E+02,3.21E+02,3.22E+02,3.22E+02,3.23E+02,3.24E+02,3.24E+02,3.26E+02,3.27E+02,3.27E+02,3.28E+02,3.29E+02,3.29E+02,3.30E+02,3.31E+02,3.31E+02,3.33E+02,0.00E+00,0.00E+00,0.00E+00,3.49E+02,3.49E+02,3.54E+02,3.54E+02,0.00E+00,0.00E+00,0.00E+00,0.00E+00,0.00E+00,3.98E+02,3.98E+02,3.98E+02,3.99E+02,3.99E+02,3.99E+02,3.99E+02,3.99E+02,3.99E+02,3.99E+02,3.99E+02,3.99E+02,3.99E+02,3.99E+02,3.99E+02,3.99E+02,3.99E+02,3.99E+02,3.99E+02,3.99E+02,3.99E+02,3.99E+02,3.99E+02,3.99E+02,3.99E+02,3.99E+02,3.99E+02,3.99E+02,3.99E+02,3.99E+02,3.99E+02,3.99E+02,3.99E+02,3.99E+02,3.99E+02,3.99E+02,3.99E+02,3.99E+02,3.99E+02,3.99E+02,3.99E+02,3.99E+02,3.99E+02,3.99E+02,3.99E+02,3.98E+02,3.98E+02,3.98E+02,3.98E+02,3.98E+02,3.98E+02,3.98E+02,3.98E+02,3.98E+02,3.98E+02,3.98E+02,3.98E+02
4.03E+02,4.03E+02,4.03E+02,4.03E+02,4.03E+02,4.03E+02,4.03E+02,4.03E+02,4.03E+02,4.03E+02,4.03E+02,4.02E+02,4.02E+02,4.02E+02,4.02E+02,4.02E+02,4.02E+02,4.02E+02,4.02E+02,4.02E+02,4.02E+02,4.02E+02,4.02E+02,4.02E+02,4.02E+02,4.02E+02,4.02E+02,4.02E+02,4.02E+02,4.02E+02,4.02E+02,4.02E+02,4.02E+02,4.02E+02,4.02E+02,4.02E+02,4.02E+02,4.02E+02,4.02E+02,4.02E+02,4.02E+02,4.02E+02,4.02E+02,4.02E+02,4.01E+02,4.01E+02,4.01E+02,4.01E+02,4.01E+02,4.01E+02,4.01E+02,4.00E+02,4.00E+02,4.00E+02,4.00E+02,4.00E+02,3.99E+02,3.99E+02,3.99E+02,3.99E+02,3.99E+02,3.99E+02,3.99E+02,3.99E+02,3.99E+02,3.99E+02,3.99E+02,3.99E+02,3.99E+02,3.99E+02,3.99E+02,3.99E+02,3.99E+02,3.99E+02,3.99E+02,3.99E+02,3.99E+02,3.99E+02,3.99E+02,3.99E+02,3.99E+02,3.99E+02,3.99E+02,3.99E+02,4.00E+02,4.00E+02,4.00E+02,4.00E+02,4.00E+02,4.00E+02,4.00E+02,4.00E+02,4.00E+02,4.01E+02,4.01E+02,4.01E+02,4.01E+02,4.01E+02,4.01E+02,4.01E+02,4.01E+02,4.01E+02,4.01E+02,4.01E+02,4.01E+02,4.01E+02,4.01E+02,4.01E+02,4.01E+02,4.01E+02,4.01E+02,4.01E+02,4.01E+02,4.01E+02,4.01E+02,4.01E+02,4.01E+02,4.01E+02,4.00E+02,4.00E+02,3.99E+02,3.99E+02,3.99E+02,3.99E+02,3.99E+02,3.99E+02,3.99E+02,3.99E+02,3.98E+02,3.98E+02,0.00E+00,0.00E+00,0.00E+00,0.00E+00,0.00E+00,0.00E+00,0.00E+00,0.00E+00,0.00E+00,0.00E+00,0.00E+00,0.00E+00,0.00E+00,0.00E+00,0.00E+00,0.00E+00,0.00E+00,0.00E+00,0.00E+00,3.39E+02,3.39E+02,3.38E+02,3.37E+02,3.37E+02,3.37E+02,3.37E+02,3.36E+02,3.35E+02,3.35E+02,3.34E+02,3.34E+02,3.33E+02,3.33E+02,3.33E+02,3.32E+02,3.32E+02,3.31E+02,3.31E+02,3.31E+02,3.30E+02,3.30E+02,3.30E+02,3.29E+02,3.29E+02,3.28E+02,3.28E+02,3.28E+02,3.27E+02,3.27E+02,3.26E+02,3.26E+02,3.26E+02,3.25E+02,3.25E+02,3.25E+02,3.24E+02,3.24E+02,3.24E+02,3.24E+02,3.24E+02,3.23E+02,3.23E+02,3.23E+02,3.23E+02,3.23E+02,3.22E+02,3.22E+02,3.22E+02,3.22E+02,3.22E+02,3.21E+02,3.21E+02,3.21E+02,3.21E+02,3.21E+02,3.21E+02,3.21E+02,3.21E+02,3.21E+02,3.21E+02,3.20E+02,3.20E+02,3.20E+02,3.20E+02,3.20E+02,3.20E+02,3.20E+02,3.20E+02,3.20E+02,3.20E+02,3.20E+02,3.20E+02,3.20E+02,3.20E+02,3.20E+02,3.20E+02,3.20E+02,3.20E+02,3.20E+02,3.20E+02,3.20E+02,3.20E+02,3.20E+02,3.20E+02,3.20E+02,3.20E+02,3.20E+02,3.20E+02,3.20E+02,3.20E+02,3.20E+02,3.20E+02,3.20E+02,3.21E+02,3.21E+02,3.21E+02,3.22E+02,3.23E+02,3.23E+02,3.24E+02,3.25E+02,3.25E+02,3.27E+02,3.28E+02,3.28E+02,3.29E+02,3.30E+02,3.30E+02,3.30E+02,3.31E+02,3.31E+02,3.33E+02,0.00E+00,0.00E+00,0.00E+00,0.00E+00,0.00E+00,0.00E+00,0.00E+00,0.00E+00,0.00E+00,0.00E+00,0.00E+00,0.00E+00,3.98E+02,3.98E+02,3.98E+02,3.99E+02,3.99E+02,3.99E+02,3.99E+02,3.99E+02,3.99E+02,3.99E+02,3.99E+02,3.99E+02,4.00E+02,3.99E+02,3.99E+02,3.99E+02,3.99E+02,3.99E+02,3.99E+02,3.99E+02,3.99E+02,3.99E+02,3.99E+02,3.99E+02,3.99E+02,3.99E+02,3.99E+02,3.99E+02,3.99E+02,3.99E+02,3.99E+02,3.99E+02,3.99E+02,3.99E+02,3.99E+02,3.99E+02,3.99E+02,3.99E+02,3.99E+02,3.99E+02,3.99E+02,3.99E+02,3.99E+02,3.99E+02,3.99E+02,3.98E+02,3.98E+02,3.98E+02,3.98E+02,3.98E+02,3.98E+02,3.98E+02,3.98E+02,3.98E+02,3.98E+02,3.98E+02,3.98E+02
4.03E+02,4.03E+02,4.03E+02,4.03E+02,4.03E+02,4.03E+02,4.03E+02,4.03E+02,4.03E+02,4.03E+02,4.03E+02,4.03E+02,4.03E+02,4.03E+02,4.02E+02,4.02E+02,4.02E+02,4.02E+02,4.02E+02,4.02E+02,4.02E+02,4.02E+02,4.02E+02,4.02E+02,4.02E+02,4.02E+02,4.02E+02,4.02E+02,4.02E+02,4.02E+02,4.02E+02,4.02E+02,4.02E+02,4.02E+02,4.02E+02,4.02E+02,4.02E+02,4.02E+02,4.02E+02,4.02E+02,4.02E+02,4.02E+02,4.02E+02,4.02E+02,4.02E+02,4.02E+02,4.01E+02,4.01E+02,4.01E+02,4.01E+02,4.01E+02,4.01E+02,4.00E+02,4.00E+02,4.00E+02,4.00E+02,3.99E+02,3.99E+02,3.99E+02,3.99E+02,3.99E+02,3.99E+02,3.99E+02,3.99E+02,3.99E+02,3.99E+02,3.99E+02,3.99E+02,3.99E+02,3.99E+02,3.99E+02,3.99E+02,3.99E+02,3.99E+02,3.99E+02,3.99E+02,3.99E+02,3.99E+02,3.99E+02,3.99E+02,3.99E+02,3.99E+02,3.99E+02,3.99E+02,3.99E+02,4.00E+02,4.00E+02,4.00E+02,4.00E+02,4.00E+02,4.00E+02,4.00E+02,4.00E+02,4.01E+02,4.01E+02,4.01E+02,4.01E+02,4.01E+02,4.01E+02,4.01E+02,4.01E+02,4.01E+02,4.01E+02,4.01E+02,4.01E+02,4.01E+02,4.01E+02,4.01E+02,4.01E+02,4.01E+02,4.01E+02,4.01E+02,4.01E+02,4.01E+02,4.01E+02,4.01E+02,4.01E+02,4.01E+02,4.00E+02,4.00E+02,3.99E+02,3.99E+02,4.00E+02,3.99E+02,3.99E+02,3.99E+02,3.99E+02,3.99E+02,3.98E+02,3.98E+02,0.00E+00,0.00E+00,0.00E+00,0.00E+00,0.00E+00,0.00E+00,0.00E+00,0.00E+00,0.00E+00,0.00E+00,0.00E+00,0.00E+00,0.00E+00,0.00E+00,0.00E+00,0.00E+00,0.00E+00,0.00E+00,0.00E+00,0.00E+00,0.00E+00,0.00E+00,0.00E+00,0.00E+00,0.00E+00,0.00E+00,3.36E+02,3.35E+02,3.35E+02,3.34E+02,3.34E+02,3.33E+02,3.33E+02,3.33E+02,3.32E+02,3.32E+02,3.31E+02,3.31E+02,3.31E+02,3.30E+02,3.30E+02,3.30E+02,3.29E+02,3.29E+02,3.28E+02,3.28E+02,3.28E+02,3.27E+02,3.27E+02,3.26E+02,3.26E+02,3.26E+02,3.25E+02,3.25E+02,3.25E+02,3.24E+02,3.24E+02,3.24E+02,3.24E+02,3.24E+02,3.23E+02,3.23E+02,3.23E+02,3.23E+02,3.23E+02,3.23E+02,3.23E+02,3.22E+02,3.22E+02,3.22E+02,3.22E+02,3.22E+02,3.21E+02,3.21E+02,3.21E+02,3.21E+02,3.21E+02,3.21E+02,3.21E+02,3.21E+02,3.21E+02,3.21E+02,3.21E+02,3.21E+02,3.20E+02,3.20E+02,3.20E+02,3.20E+02,3.20E+02,3.20E+02,3.20E+02,3.20E+02,3.20E+02,3.20E+02,3.20E+02,3.20E+02,3.20E+02,3.20E+02,3.20E+02,3.20E+02,3.20E+02,3.20E+02,3.20E+02,3.20E+02,3.20E+02,3.20E+02,3.20E+02,3.20E+02,3.21E+02,3.21E+02,3.21E+02,3.21E+02,3.22E+02,3.22E+02,3.22E+02,3.22E+02,3.23E+02,3.24E+02,3.24E+02,3.25E+02,3.26E+02,3.26E+02,3.28E+02,3.28E+02,3.28E+02,3.29E+02,3.30E+02,3.30E+02,3.30E+02,3.31E+02,3.31E+02,3.33E+02,0.00E+00,0.00E+00,0.00E+00,0.00E+00,0.00E+00,0.00E+00,0.00E+00,0.00E+00,0.00E+00,0.00E+00,0.00E+00,0.00E+00,3.98E+02,3.98E+02,3.98E+02,3.98E+02,3.98E+02,3.98E+02,3.99E+02,3.99E+02,3.99E+02,3.99E+02,3.99E+02,3.99E+02,4.00E+02,4.00E+02,4.00E+02,3.99E+02,3.99E+02,3.99E+02,3.99E+02,3.99E+02,3.99E+02,3.99E+02,3.99E+02,3.99E+02,3.99E+02,3.99E+02,3.99E+02,3.99E+02,3.99E+02,3.99E+02,3.99E+02,3.99E+02,3.99E+02,3.99E+02,3.99E+02,3.99E+02,3.99E+02,3.99E+02,3.99E+02,3.99E+02,3.99E+02,3.99E+02,3.99E+02,3.99E+02,3.99E+02,3.99E+02,3.99E+02,3.99E+02,3.99E+02,3.99E+02,3.98E+02,3.98E+02,3.98E+02,3.98E+02,3.99E+02,3.99E+02,3.98E+02
4.04E+02,4.04E+02,4.04E+02,4.04E+02,4.04E+02,4.04E+02,4.03E+02,4.03E+02,4.03E+02,4.03E+02,4.03E+02,4.03E+02,4.03E+02,4.03E+02,4.03E+02,4.03E+02,4.02E+02,4.02E+02,4.02E+02,4.02E+02,4.02E+02,4.02E+02,4.02E+02,4.02E+02,4.02E+02,4.02E+02,4.02E+02,4.02E+02,4.02E+02,4.02E+02,4.02E+02,4.02E+02,4.02E+02,4.02E+02,4.02E+02,4.02E+02,4.02E+02,4.02E+02,4.02E+02,4.02E+02,4.02E+02,4.02E+02,4.02E+02,4.02E+02,4.02E+02,4.02E+02,4.01E+02,4.01E+02,4.01E+02,4.01E+02,4.01E+02,4.01E+02,4.00E+02,4.00E+02,4.00E+02,4.00E+02,3.99E+02,3.99E+02,3.99E+02,3.99E+02,3.99E+02,3.99E+02,3.99E+02,3.99E+02,3.99E+02,3.99E+02,3.99E+02,3.99E+02,3.99E+02,3.99E+02,3.99E+02,3.99E+02,3.99E+02,3.99E+02,3.99E+02,3.99E+02,3.99E+02,3.99E+02,3.99E+02,3.99E+02,3.99E+02,3.99E+02,3.99E+02,3.99E+02,3.99E+02,4.00E+02,4.00E+02,4.00E+02,4.00E+02,4.00E+02,4.00E+02,4.00E+02,4.01E+02,4.01E+02,4.01E+02,4.01E+02,4.01E+02,4.01E+02,4.01E+02,4.01E+02,4.01E+02,4.01E+02,4.01E+02,4.01E+02,4.01E+02,4.01E+02,4.01E+02,4.01E+02,4.01E+02,4.01E+02,4.01E+02,4.01E+02,4.01E+02,4.01E+02,4.01E+02,4.01E+02,4.01E+02,4.01E+02,4.00E+02,4.00E+02,3.99E+02,3.99E+02,4.00E+02,3.99E+02,3.99E+02,3.99E+02,3.99E+02,3.99E+02,3.98E+02,3.98E+02,0.00E+00,0.00E+00,0.00E+00,0.00E+00,0.00E+00,0.00E+00,0.00E+00,0.00E+00,0.00E+00,0.00E+00,0.00E+00,0.00E+00,0.00E+00,0.00E+00,0.00E+00,0.00E+00,0.00E+00,0.00E+00,0.00E+00,0.00E+00,0.00E+00,0.00E+00,0.00E+00,0.00E+00,0.00E+00,0.00E+00,0.00E+00,3.35E+02,3.35E+02,3.34E+02,3.34E+02,3.34E+02,3.33E+02,3.33E+02,3.32E+02,3.32E+02,3.32E+02,3.31E+02,3.31E+02,3.30E+02,3.30E+02,3.30E+02,3.29E+02,3.29E+02,3.29E+02,3.28E+02,3.28E+02,3.27E+02,3.27E+02,3.27E+02,3.26E+02,3.26E+02,3.26E+02,3.26E+02,3.25E+02,3.25E+02,3.25E+02,3.24E+02,3.24E+02,3.24E+02,3.24E+02,3.24E+02,3.23E+02,3.23E+02,3.23E+02,3.23E+02,3.23E+02,3.22E+02,3.22E+02,3.22E+02,3.22E+02,3.22E+02,3.21E+02,3.21E+02,3.21E+02,3.21E+02,3.21E+02,3.21E+02,3.21E+02,3.21E+02,3.21E+02,3.21E+02,3.21E+02,3.21E+02,3.21E+02,3.21E+02,3.20E+02,3.20E+02,3.20E+02,3.20E+02,3.20E+02,3.20E+02,3.20E+02,3.20E+02,3.20E+02,3.20E+02,3.20E+02,3.20E+02,3.20E+02,3.20E+02,3.20E+02,3.20E+02,3.20E+02,3.20E+02,3.20E+02,3.20E+02,3.20E+02,3.20E+02,3.21E+02,3.21E+02,3.21E+02,3.21E+02,3.22E+02,3.22E+02,3.22E+02,3.22E+02,3.23E+02,3.24E+02,3.24E+02,3.25E+02,3.26E+02,3.26E+02,3.28E+02,3.28E+02,3.28E+02,3.29E+02,3.30E+02,3.30E+02,3.31E+02,3.32E+02,3.32E+02,3.33E+02,0.00E+00,0.00E+00,0.00E+00,0.00E+00,0.00E+00,0.00E+00,0.00E+00,0.00E+00,0.00E+00,0.00E+00,0.00E+00,0.00E+00,0.00E+00,0.00E+00,3.98E+02,3.98E+02,3.98E+02,3.98E+02,3.99E+02,3.99E+02,3.99E+02,3.99E+02,3.99E+02,4.00E+02,4.00E+02,4.00E+02,4.00E+02,4.00E+02,4.00E+02,4.00E+02,4.00E+02,3.99E+02,3.99E+02,3.99E+02,3.99E+02,3.99E+02,3.99E+02,3.99E+02,3.99E+02,3.99E+02,3.99E+02,3.99E+02,3.99E+02,3.99E+02,3.99E+02,3.99E+02,3.99E+02,3.99E+02,3.99E+02,3.99E+02,3.99E+02,3.99E+02,3.99E+02,3.99E+02,3.99E+02,3.99E+02,3.99E+02,3.99E+02,3.99E+02,3.99E+02,3.99E+02,3.99E+02,3.98E+02,3.98E+02,3.98E+02,3.98E+02,3.98E+02,3.98E+02,3.98E+02
4.04E+02,4.04E+02,4.04E+02,4.04E+02,4.04E+02,4.04E+02,4.03E+02,4.03E+02,4.03E+02,4.03E+02,4.03E+02,4.03E+02,4.03E+02,4.03E+02,4.02E+02,4.02E+02,4.02E+02,4.02E+02,4.02E+02,4.02E+02,4.02E+02,4.02E+02,4.02E+02,4.02E+02,4.02E+02,4.02E+02,4.02E+02,4.02E+02,4.02E+02,4.02E+02,4.02E+02,4.02E+02,4.02E+02,4.02E+02,4.02E+02,4.02E+02,4.02E+02,4.02E+02,4.02E+02,4.02E+02,4.02E+02,4.02E+02,4.02E+02,4.02E+02,4.02E+02,4.02E+02,4.01E+02,4.01E+02,4.01E+02,4.01E+02,4.01E+02,4.01E+02,4.00E+02,4.00E+02,4.00E+02,4.00E+02,4.00E+02,3.99E+02,3.99E+02,3.99E+02,3.99E+02,3.99E+02,3.99E+02,3.99E+02,3.99E+02,3.99E+02,3.99E+02,3.99E+02,3.99E+02,3.99E+02,3.99E+02,3.99E+02,3.99E+02,3.99E+02,3.99E+02,3.99E+02,3.99E+02,3.99E+02,3.99E+02,3.99E+02,3.99E+02,3.99E+02,3.99E+02,3.99E+02,3.99E+02,4.00E+02,4.00E+02,4.00E+02,4.00E+02,4.00E+02,4.00E+02,4.00E+02,4.01E+02,4.01E+02,4.01E+02,4.01E+02,4.01E+02,4.01E+02,4.01E+02,4.01E+02,4.01E+02,4.01E+02,4.01E+02,4.01E+02,4.01E+02,4.01E+02,4.01E+02,4.01E+02,4.01E+02,4.01E+02,4.01E+02,4.01E+02,4.01E+02,4.01E+02,4.01E+02,4.01E+02,4.01E+02,4.01E+02,4.00E+02,4.00E+02,4.00E+02,4.00E+02,4.00E+02,3.99E+02,3.99E+02,3.99E+02,3.99E+02,3.99E+02,3.99E+02,3.99E+02,0.00E+00,0.00E+00,0.00E+00,0.00E+00,0.00E+00,0.00E+00,0.00E+00,0.00E+00,0.00E+00,0.00E+00,0.00E+00,0.00E+00,0.00E+00,0.00E+00,0.00E+00,0.00E+00,0.00E+00,0.00E+00,0.00E+00,0.00E+00,0.00E+00,0.00E+00,0.00E+00,0.00E+00,0.00E+00,0.00E+00,0.00E+00,0.00E+00,0.00E+00,3.35E+02,3.35E+02,3.34E+02,3.33E+02,3.33E+02,3.33E+02,3.33E+02,3.32E+02,3.31E+02,3.31E+02,3.31E+02,3.31E+02,3.30E+02,3.30E+02,3.30E+02,3.29E+02,3.28E+02,3.28E+02,3.28E+02,3.28E+02,3.27E+02,3.26E+02,3.26E+02,3.26E+02,3.26E+02,3.25E+02,3.25E+02,3.25E+02,3.24E+02,3.24E+02,3.24E+02,3.24E+02,3.24E+02,3.23E+02,3.23E+02,3.23E+02,3.23E+02,3.23E+02,3.22E+02,3.22E+02,3.22E+02,3.22E+02,3.22E+02,3.21E+02,3.21E+02,3.21E+02,3.21E+02,3.21E+02,3.21E+02,3.21E+02,3.21E+02,3.21E+02,3.21E+02,3.21E+02,3.21E+02,3.21E+02,3.21E+02,3.21E+02,3.21E+02,3.21E+02,3.21E+02,3.21E+02,3.21E+02,3.21E+02,3.21E+02,3.21E+02,3.21E+02,3.21E+02,3.21E+02,3.21E+02,3.21E+02,3.21E+02,3.21E+02,3.21E+02,3.21E+02,3.21E+02,3.21E+02,3.21E+02,3.21E+02,3.21E+02,3.22E+02,3.22E+02,3.22E+02,3.23E+02,3.23E+02,3.23E+02,3.24E+02,3.24E+02,3.25E+02,3.26E+02,3.26E+02,3.27E+02,3.28E+02,3.28E+02,3.29E+02,3.30E+02,3.30E+02,3.31E+02,3.32E+02,3.32E+02,3.33E+02,3.33E+02,3.34E+02,0.00E+00,0.00E+00,0.00E+00,0.00E+00,0.00E+00,0.00E+00,0.00E+00,0.00E+00,0.00E+00,0.00E+00,0.00E+00,0.00E+00,0.00E+00,0.00E+00,3.98E+02,3.98E+02,3.98E+02,3.98E+02,3.99E+02,3.99E+02,3.99E+02,3.99E+02,3.99E+02,4.00E+02,4.00E+02,4.00E+02,4.00E+02,4.00E+02,4.00E+02,4.00E+02,4.00E+02,3.99E+02,3.99E+02,3.99E+02,3.99E+02,3.99E+02,3.99E+02,3.99E+02,3.99E+02,3.99E+02,3.99E+02,3.99E+02,3.99E+02,3.99E+02,3.99E+02,3.99E+02,3.99E+02,3.99E+02,3.99E+02,3.99E+02,3.99E+02,3.99E+02,3.99E+02,3.99E+02,3.99E+02,3.99E+02,3.99E+02,3.99E+02,3.99E+02,3.99E+02,3.99E+02,3.99E+02,3.99E+02,3.99E+02,3.99E+02,3.99E+02,3.98E+02,3.98E+02,3.98E+02
4.04E+02,4.04E+02,4.04E+02,4.04E+02,4.04E+02,4.04E+02,4.04E+02,4.04E+02,4.03E+02,4.03E+02,4.03E+02,4.03E+02,4.03E+02,4.03E+02,4.02E+02,4.02E+02,4.02E+02,4.02E+02,4.02E+02,4.02E+02,4.02E+02,4.02E+02,4.02E+02,4.02E+02,4.02E+02,4.02E+02,4.02E+02,4.02E+02,4.02E+02,4.02E+02,4.02E+02,4.02E+02,4.02E+02,4.02E+02,4.02E+02,4.02E+02,4.02E+02,4.02E+02,4.02E+02,4.02E+02,4.02E+02,4.02E+02,4.02E+02,4.02E+02,4.02E+02,4.02E+02,4.02E+02,4.02E+02,4.01E+02,4.01E+02,4.01E+02,4.01E+02,4.00E+02,4.00E+02,4.00E+02,4.00E+02,4.00E+02,3.99E+02,3.99E+02,3.99E+02,3.99E+02,3.99E+02,3.99E+02,3.99E+02,3.99E+02,3.99E+02,3.99E+02,3.99E+02,3.99E+02,3.99E+02,3.99E+02,3.99E+02,3.99E+02,3.99E+02,3.99E+02,3.99E+02,3.99E+02,3.99E+02,3.99E+02,3.99E+02,3.99E+02,3.99E+02,3.99E+02,3.99E+02,3.99E+02,3.99E+02,3.99E+02,4.00E+02,4.00E+02,4.00E+02,4.00E+02,4.00E+02,4.01E+02,4.01E+02,4.01E+02,4.01E+02,4.01E+02,4.01E+02,4.01E+02,4.01E+02,4.01E+02,4.01E+02,4.01E+02,4.01E+02,4.01E+02,4.01E+02,4.01E+02,4.01E+02,4.01E+02,4.01E+02,4.01E+02,4.01E+02,4.01E+02,4.01E+02,4.01E+02,4.01E+02,4.01E+02,4.01E+02,4.01E+02,4.00E+02,4.00E+02,4.00E+02,4.00E+02,3.99E+02,3.99E+02,3.99E+02,3.99E+02,3.99E+02,3.99E+02,3.99E+02,0.00E+00,0.00E+00,0.00E+00,0.00E+00,0.00E+00,0.00E+00,0.00E+00,0.00E+00,0.00E+00,0.00E+00,0.00E+00,0.00E+00,0.00E+00,0.00E+00,0.00E+00,0.00E+00,0.00E+00,0.00E+00,0.00E+00,0.00E+00,0.00E+00,0.00E+00,0.00E+00,0.00E+00,0.00E+00,0.00E+00,0.00E+00,0.00E+00,0.00E+00,3.35E+02,3.35E+02,3.34E+02,3.33E+02,3.33E+02,3.33E+02,3.33E+02,3.32E+02,3.31E+02,3.31E+02,3.31E+02,3.30E+02,3.30E+02,3.30E+02,3.30E+02,3.29E+02,3.28E+02,3.28E+02,3.28E+02,3.28E+02,3.27E+02,3.27E+02,3.27E+02,3.26E+02,3.26E+02,3.26E+02,3.25E+02,3.25E+02,3.25E+02,3.25E+02,3.24E+02,3.24E+02,3.24E+02,3.23E+02,3.23E+02,3.23E+02,3.23E+02,3.23E+02,3.22E+02,3.22E+02,3.22E+02,3.22E+02,3.22E+02,3.22E+02,3.21E+02,3.21E+02,3.21E+02,3.21E+02,3.21E+02,3.21E+02,3.21E+02,3.21E+02,3.21E+02,3.21E+02,3.21E+02,3.21E+02,3.21E+02,3.21E+02,3.21E+02,3.21E+02,3.21E+02,3.21E+02,3.21E+02,3.21E+02,3.21E+02,3.21E+02,3.21E+02,3.21E+02,3.21E+02,3.21E+02,3.21E+02,3.21E+02,3.21E+02,3.21E+02,3.22E+02,3.22E+02,3.22E+02,3.22E+02,3.22E+02,3.22E+02,3.23E+02,3.22E+02,3.22E+02,3.23E+02,3.23E+02,3.23E+02,3.24E+02,3.24E+02,3.25E+02,3.26E+02,3.26E+02,3.27E+02,3.28E+02,3.28E+02,3.29E+02,3.30E+02,3.30E+02,3.31E+02,3.32E+02,3.32E+02,3.33E+02,3.33E+02,3.34E+02,3.37E+02,0.00E+00,0.00E+00,3.50E+02,3.50E+02,3.54E+02,0.00E+00,0.00E+00,0.00E+00,0.00E+00,0.00E+00,0.00E+00,0.00E+00,0.00E+00,3.98E+02,3.98E+02,3.98E+02,3.98E+02,3.99E+02,3.99E+02,3.99E+02,3.99E+02,3.99E+02,3.99E+02,4.00E+02,4.00E+02,4.00E+02,4.00E+02,4.00E+02,4.00E+02,4.00E+02,3.99E+02,3.99E+02,3.99E+02,3.99E+02,3.99E+02,3.99E+02,3.99E+02,3.99E+02,3.99E+02,3.99E+02,3.99E+02,3.99E+02,3.99E+02,3.99E+02,3.99E+02,3.99E+02,3.99E+02,3.99E+02,3.99E+02,3.99E+02,3.99E+02,3.99E+02,3.99E+02,3.99E+02,3.99E+02,3.99E+02,3.99E+02,3.99E+02,3.99E+02,3.99E+02,3.99E+02,3.99E+02,3.99E+02,3.99E+02,3.99E+02,3.98E+02,3.98E+02,3.98E+02
4.04E+02,4.04E+02,4.04E+02,4.04E+02,4.04E+02,4.04E+02,4.04E+02,4.04E+02,4.04E+02,4.03E+02,4.03E+02,4.03E+02,4.03E+02,4.03E+02,4.02E+02,4.02E+02,4.02E+02,4.02E+02,4.02E+02,4.02E+02,4.02E+02,4.02E+02,4.02E+02,4.02E+02,4.02E+02,4.02E+02,4.02E+02,4.02E+02,4.02E+02,4.02E+02,4.02E+02,4.02E+02,4.02E+02,4.02E+02,4.02E+02,4.02E+02,4.02E+02,4.02E+02,4.02E+02,4.02E+02,4.02E+02,4.02E+02,4.02E+02,4.02E+02,4.02E+02,4.02E+02,4.02E+02,4.02E+02,4.01E+02,4.01E+02,4.01E+02,4.01E+02,4.01E+02,4.01E+02,4.00E+02,4.00E+02,4.00E+02,4.00E+02,4.00E+02,4.00E+02,4.00E+02,4.00E+02,4.00E+02,4.00E+02,4.00E+02,3.99E+02,3.99E+02,3.99E+02,3.99E+02,3.99E+02,3.99E+02,3.99E+02,3.99E+02,3.99E+02,3.99E+02,3.99E+02,3.99E+02,3.99E+02,3.99E+02,3.99E+02,3.99E+02,3.99E+02,3.99E+02,3.99E+02,3.99E+02,3.99E+02,3.99E+02,4.00E+02,4.00E+02,4.00E+02,4.00E+02,4.00E+02,4.01E+02,4.01E+02,4.01E+02,4.01E+02,4.01E+02,4.01E+02,4.01E+02,4.01E+02,4.01E+02,4.01E+02,4.01E+02,4.01E+02,4.01E+02,4.01E+02,4.01E+02,4.01E+02,4.01E+02,4.01E+02,4.01E+02,4.01E+02,4.01E+02,4.01E+02,4.01E+02,4.01E+02,4.01E+02,4.01E+02,4.01E+02,4.00E+02,4.00E+02,4.00E+02,4.00E+02,3.99E+02,3.99E+02,3.99E+02,3.99E+02,3.99E+02,3.99E+02,3.99E+02,0.00E+00,0.00E+00,0.00E+00,0.00E+00,0.00E+00,0.00E+00,0.00E+00,0.00E+00,0.00E+00,0.00E+00,0.00E+00,0.00E+00,0.00E+00,0.00E+00,0.00E+00,0.00E+00,0.00E+00,0.00E+00,0.00E+00,0.00E+00,0.00E+00,0.00E+00,0.00E+00,0.00E+00,0.00E+00,0.00E+00,0.00E+00,0.00E+00,0.00E+00,3.35E+02,3.35E+02,3.35E+02,3.34E+02,3.34E+02,3.33E+02,3.33E+02,3.33E+02,3.32E+02,3.32E+02,3.31E+02,3.30E+02,3.30E+02,3.30E+02,3.30E+02,3.29E+02,3.29E+02,3.29E+02,3.28E+02,3.28E+02,3.28E+02,3.27E+02,3.27E+02,3.26E+02,3.26E+02,3.26E+02,3.25E+02,3.25E+02,3.25E+02,3.25E+02,3.24E+02,3.24E+02,3.24E+02,3.23E+02,3.23E+02,3.23E+02,3.23E+02,3.23E+02,3.22E+02,3.22E+02,3.22E+02,3.22E+02,3.22E+02,3.22E+02,3.22E+02,3.22E+02,3.21E+02,3.21E+02,3.21E+02,3.21E+02,3.21E+02,3.21E+02,3.21E+02,3.21E+02,3.21E+02,3.21E+02,3.21E+02,3.21E+02,3.21E+02,3.21E+02,3.21E+02,3.21E+02,3.21E+02,3.21E+02,3.21E+02,3.21E+02,3.21E+02,3.21E+02,3.21E+02,3.21E+02,3.21E+02,3.21E+02,3.21E+02,3.21E+02,3.22E+02,3.22E+02,3.22E+02,3.22E+02,3.22E+02,3.22E+02,3.23E+02,3.23E+02,3.23E+02,3.24E+02,3.24E+02,3.24E+02,3.25E+02,3.25E+02,3.26E+02,3.27E+02,3.27E+02,3.28E+02,3.29E+02,3.29E+02,3.30E+02,3.31E+02,3.31E+02,3.32E+02,3.33E+02,3.33E+02,3.33E+02,3.35E+02,3.35E+02,3.37E+02,0.00E+00,0.00E+00,3.50E+02,3.50E+02,3.54E+02,0.00E+00,0.00E+00,0.00E+00,0.00E+00,0.00E+00,0.00E+00,0.00E+00,0.00E+00,3.98E+02,3.98E+02,3.98E+02,3.98E+02,3.99E+02,3.99E+02,3.99E+02,3.99E+02,3.99E+02,3.99E+02,4.00E+02,4.00E+02,4.00E+02,4.00E+02,4.00E+02,4.00E+02,4.00E+02,3.99E+02,3.99E+02,3.99E+02,3.99E+02,3.99E+02,3.99E+02,3.99E+02,3.99E+02,3.99E+02,3.99E+02,3.99E+02,3.99E+02,3.99E+02,3.99E+02,3.99E+02,3.99E+02,3.99E+02,3.99E+02,3.99E+02,3.99E+02,3.99E+02,3.99E+02,3.99E+02,3.99E+02,3.99E+02,3.99E+02,3.99E+02,3.99E+02,3.99E+02,3.99E+02,3.99E+02,3.99E+02,3.99E+02,3.99E+02,3.99E+02,3.98E+02,3.98E+02,3.98E+02
4.04E+02,4.04E+02,4.04E+02,4.04E+02,4.04E+02,4.04E+02,4.04E+02,4.04E+02,4.04E+02,4.03E+02,4.03E+02,4.03E+02,4.03E+02,4.03E+02,4.03E+02,4.03E+02,4.02E+02,4.02E+02,4.02E+02,4.02E+02,4.02E+02,4.02E+02,4.02E+02,4.02E+02,4.02E+02,4.02E+02,4.02E+02,4.02E+02,4.02E+02,4.02E+02,4.02E+02,4.02E+02,4.02E+02,4.02E+02,4.02E+02,4.02E+02,4.02E+02,4.02E+02,4.02E+02,4.02E+02,4.02E+02,4.02E+02,4.02E+02,4.02E+02,4.02E+02,4.02E+02,4.02E+02,4.02E+02,4.01E+02,4.01E+02,4.01E+02,4.01E+02,4.01E+02,4.01E+02,4.00E+02,4.00E+02,4.00E+02,4.00E+02,4.00E+02,4.00E+02,4.00E+02,4.00E+02,4.00E+02,4.00E+02,4.00E+02,4.00E+02,4.00E+02,4.00E+02,3.99E+02,3.99E+02,3.99E+02,3.99E+02,3.99E+02,3.99E+02,3.99E+02,3.98E+02,3.98E+02,3.98E+02,3.98E+02,3.98E+02,3.98E+02,3.98E+02,3.99E+02,3.99E+02,3.99E+02,3.99E+02,3.99E+02,4.00E+02,4.00E+02,4.00E+02,4.00E+02,4.00E+02,4.01E+02,4.01E+02,4.01E+02,4.01E+02,4.01E+02,4.01E+02,4.01E+02,4.01E+02,4.01E+02,4.01E+02,4.01E+02,4.01E+02,4.01E+02,4.01E+02,4.01E+02,4.01E+02,4.01E+02,4.01E+02,4.01E+02,4.01E+02,4.01E+02,4.01E+02,4.01E+02,4.01E+02,4.01E+02,4.01E+02,4.01E+02,4.00E+02,4.00E+02,4.00E+02,4.00E+02,3.99E+02,3.99E+02,4.00E+02,3.99E+02,3.99E+02,3.99E+02,3.99E+02,0.00E+00,0.00E+00,0.00E+00,0.00E+00,0.00E+00,0.00E+00,0.00E+00,0.00E+00,0.00E+00,0.00E+00,0.00E+00,0.00E+00,0.00E+00,0.00E+00,0.00E+00,0.00E+00,0.00E+00,0.00E+00,0.00E+00,0.00E+00,0.00E+00,0.00E+00,0.00E+00,0.00E+00,0.00E+00,0.00E+00,0.00E+00,0.00E+00,0.00E+00,3.36E+02,3.35E+02,3.35E+02,3.35E+02,0.00E+00,0.00E+00,0.00E+00,0.00E+00,3.32E+02,3.32E+02,3.31E+02,3.30E+02,3.30E+02,3.30E+02,3.30E+02,3.29E+02,3.29E+02,3.29E+02,3.28E+02,3.28E+02,3.28E+02,3.27E+02,3.27E+02,3.26E+02,3.26E+02,3.26E+02,3.25E+02,3.25E+02,3.25E+02,3.25E+02,3.24E+02,3.24E+02,3.24E+02,3.23E+02,3.23E+02,3.23E+02,3.23E+02,3.23E+02,3.22E+02,3.22E+02,3.22E+02,3.22E+02,3.22E+02,3.22E+02,3.22E+02,3.22E+02,3.21E+02,3.21E+02,3.22E+02,3.22E+02,3.22E+02,3.22E+02,3.22E+02,3.22E+02,3.22E+02,3.22E+02,3.22E+02,3.22E+02,3.22E+02,3.22E+02,3.22E+02,3.22E+02,3.22E+02,3.22E+02,3.22E+02,3.22E+02,3.21E+02,3.21E+02,3.21E+02,3.22E+02,3.22E+02,3.22E+02,3.22E+02,3.22E+02,3.22E+02,3.22E+02,3.22E+02,3.23E+02,3.23E+02,3.23E+02,3.24E+02,3.24E+02,3.24E+02,3.25E+02,3.25E+02,3.25E+02,3.26E+02,3.26E+02,3.27E+02,3.28E+02,3.28E+02,3.29E+02,3.30E+02,3.30E+02,3.31E+02,3.31E+02,3.31E+02,3.32E+02,3.33E+02,3.33E+02,3.34E+02,3.35E+02,3.35E+02,3.37E+02,0.00E+00,0.00E+00,3.50E+02,3.50E+02,3.53E+02,3.57E+02,3.57E+02,0.00E+00,0.00E+00,0.00E+00,0.00E+00,3.98E+02,3.98E+02,3.98E+02,3.98E+02,3.98E+02,3.98E+02,3.98E+02,3.98E+02,3.98E+02,3.99E+02,3.99E+02,3.99E+02,3.99E+02,3.99E+02,3.99E+02,3.99E+02,3.99E+02,4.00E+02,3.99E+02,3.99E+02,3.99E+02,3.99E+02,3.99E+02,3.99E+02,3.99E+02,3.99E+02,3.99E+02,3.99E+02,3.99E+02,3.99E+02,3.99E+02,3.99E+02,3.99E+02,3.99E+02,3.99E+02,3.99E+02,3.99E+02,3.99E+02,3.99E+02,3.99E+02,3.99E+02,3.99E+02,3.99E+02,3.99E+02,3.99E+02,3.99E+02,3.99E+02,3.99E+02,3.99E+02,3.99E+02,3.99E+02,3.99E+02,3.99E+02,3.99E+02,3.98E+02,3.98E+02,3.98E+02
4.04E+02,4.04E+02,4.04E+02,4.04E+02,4.04E+02,4.04E+02,4.04E+02,4.04E+02,4.04E+02,4.03E+02,4.03E+02,4.03E+02,4.03E+02,4.03E+02,4.03E+02,4.03E+02,4.02E+02,4.02E+02,4.02E+02,4.02E+02,4.02E+02,4.02E+02,4.02E+02,4.02E+02,4.02E+02,4.02E+02,4.02E+02,4.02E+02,4.02E+02,4.02E+02,4.02E+02,4.02E+02,4.02E+02,4.02E+02,4.02E+02,4.02E+02,4.02E+02,4.02E+02,4.02E+02,4.02E+02,4.02E+02,4.02E+02,4.02E+02,4.02E+02,4.02E+02,4.02E+02,4.02E+02,4.02E+02,4.01E+02,4.01E+02,4.01E+02,4.01E+02,4.01E+02,4.01E+02,4.00E+02,4.00E+02,4.00E+02,4.00E+02,4.00E+02,4.00E+02,4.00E+02,4.00E+02,4.00E+02,4.00E+02,4.00E+02,4.00E+02,4.00E+02,4.00E+02,3.99E+02,3.99E+02,3.99E+02,3.99E+02,3.99E+02,3.99E+02,3.99E+02,3.98E+02,3.98E+02,3.98E+02,3.98E+02,3.98E+02,3.98E+02,3.98E+02,3.98E+02,3.98E+02,3.99E+02,3.99E+02,3.99E+02,4.00E+02,4.00E+02,4.00E+02,4.00E+02,4.00E+02,4.01E+02,4.01E+02,4.01E+02,4.01E+02,4.01E+02,4.01E+02,4.01E+02,4.01E+02,4.01E+02,4.01E+02,4.01E+02,4.01E+02,4.01E+02,4.01E+02,4.01E+02,4.01E+02,4.01E+02,4.01E+02,4.01E+02,4.01E+02,4.01E+02,4.01E+02,4.01E+02,4.01E+02,4.01E+02,4.01E+02,4.01E+02,4.01E+02,4.01E+02,4.00E+02,4.00E+02,4.00E+02,4.00E+02,4.00E+02,4.00E+02,4.00E+02,4.00E+02,4.00E+02,0.00E+00,0.00E+00,0.00E+00,0.00E+00,0.00E+00,0.00E+00,0.00E+00,0.00E+00,0.00E+00,0.00E+00,0.00E+00,0.00E+00,0.00E+00,0.00E+00,0.00E+00,0.00E+00,0.00E+00,0.00E+00,0.00E+00,0.00E+00,0.00E+00,0.00E+00,0.00E+00,0.00E+00,0.00E+00,0.00E+00,0.00E+00,3.37E+02,3.37E+02,3.36E+02,3.35E+02,3.35E+02,3.35E+02,0.00E+00,0.00E+00,0.00E+00,0.00E+00,3.32E+02,3.32E+02,3.31E+02,3.31E+02,3.31E+02,3.31E+02,3.31E+02,3.30E+02,3.29E+02,3.29E+02,3.29E+02,3.29E+02,3.28E+02,3.27E+02,3.27E+02,3.27E+02,3.27E+02,3.26E+02,3.26E+02,3.26E+02,3.25E+02,3.25E+02,3.25E+02,3.24E+02,3.24E+02,3.24E+02,3.23E+02,3.23E+02,3.23E+02,3.23E+02,3.23E+02,3.22E+02,3.22E+02,3.22E+02,3.22E+02,3.22E+02,3.22E+02,3.22E+02,3.22E+02,3.22E+02,3.22E+02,3.22E+02,3.22E+02,3.22E+02,3.22E+02,3.22E+02,3.22E+02,3.22E+02,3.22E+02,3.22E+02,3.22E+02,3.22E+02,3.22E+02,3.22E+02,3.22E+02,3.22E+02,3.22E+02,3.22E+02,3.22E+02,3.22E+02,3.22E+02,3.22E+02,3.22E+02,3.22E+02,3.22E+02,3.22E+02,3.22E+02,3.22E+02,3.22E+02,3.23E+02,3.23E+02,3.23E+02,3.24E+02,3.24E+02,3.24E+02,3.25E+02,3.25E+02,3.25E+02,3.26E+02,3.26E+02,3.27E+02,3.28E+02,3.28E+02,3.29E+02,3.30E+02,3.30E+02,3.31E+02,3.31E+02,3.31E+02,3.32E+02,3.33E+02,3.33E+02,3.34E+02,3.35E+02,3.35E+02,3.37E+02,3.41E+02,3.41E+02,0.00E+00,3.53E+02,3.53E+02,3.56E+02,3.56E+02,0.00E+00,0.00E+00,0.00E+00,0.00E+00,3.98E+02,3.98E+02,3.98E+02,3.98E+02,3.98E+02,3.98E+02,3.98E+02,3.98E+02,3.98E+02,3.99E+02,3.99E+02,3.99E+02,3.99E+02,3.99E+02,3.99E+02,3.99E+02,3.99E+02,4.00E+02,3.99E+02,3.99E+02,3.99E+02,3.99E+02,3.99E+02,3.99E+02,3.99E+02,3.99E+02,3.99E+02,3.99E+02,3.99E+02,3.99E+02,3.99E+02,3.99E+02,3.99E+02,3.99E+02,3.99E+02,3.99E+02,3.99E+02,3.99E+02,3.99E+02,3.99E+02,3.99E+02,3.99E+02,3.99E+02,3.99E+02,3.99E+02,3.99E+02,3.99E+02,3.99E+02,3.99E+02,3.99E+02,3.99E+02,3.99E+02,3.99E+02,3.99E+02,3.98E+02,3.98E+02,3.98E+02
4.04E+02,4.04E+02,4.04E+02,4.04E+02,4.04E+02,4.04E+02,4.04E+02,4.04E+02,4.04E+02,4.03E+02,4.03E+02,4.03E+02,4.03E+02,4.03E+02,4.03E+02,4.03E+02,4.02E+02,4.02E+02,4.02E+02,4.02E+02,4.01E+02,4.01E+02,4.01E+02,4.01E+02,4.01E+02,4.01E+02,4.01E+02,4.01E+02,4.01E+02,4.01E+02,4.01E+02,4.02E+02,4.02E+02,4.02E+02,4.02E+02,4.02E+02,4.02E+02,4.02E+02,4.02E+02,4.02E+02,4.02E+02,4.02E+02,4.02E+02,4.02E+02,4.02E+02,4.02E+02,4.02E+02,4.01E+02,4.01E+02,4.01E+02,4.01E+02,4.01E+02,4.01E+02,4.01E+02,4.01E+02,4.01E+02,4.00E+02,4.00E+02,4.00E+02,4.00E+02,4.01E+02,4.01E+02,4.01E+02,4.01E+02,4.00E+02,4.00E+02,4.00E+02,4.00E+02,3.99E+02,3.99E+02,3.99E+02,3.99E+02,3.99E+02,3.99E+02,3.99E+02,3.99E+02,3.98E+02,3.98E+02,3.98E+02,3.98E+02,3.98E+02,3.98E+02,3.98E+02,3.98E+02,3.99E+02,3.99E+02,3.99E+02,4.00E+02,4.00E+02,4.00E+02,4.00E+02,4.00E+02,4.01E+02,4.01E+02,4.01E+02,4.01E+02,4.01E+02,4.01E+02,4.01E+02,4.01E+02,4.01E+02,4.01E+02,4.01E+02,4.01E+02,4.01E+02,4.01E+02,4.01E+02,4.01E+02,4.01E+02,4.01E+02,4.01E+02,4.01E+02,4.01E+02,4.01E+02,4.01E+02,4.01E+02,4.01E+02,4.01E+02,4.01E+02,4.01E+02,4.01E+02,4.00E+02,4.00E+02,4.00E+02,4.00E+02,4.00E+02,4.00E+02,4.00E+02,4.00E+02,4.00E+02,4.01E+02,0.00E+00,0.00E+00,0.00E+00,0.00E+00,0.00E+00,0.00E+00,0.00E+00,0.00E+00,0.00E+00,0.00E+00,0.00E+00,0.00E+00,0.00E+00,0.00E+00,0.00E+00,0.00E+00,0.00E+00,0.00E+00,0.00E+00,0.00E+00,0.00E+00,0.00E+00,0.00E+00,0.00E+00,0.00E+00,0.00E+00,3.37E+02,3.37E+02,3.37E+02,3.36E+02,3.36E+02,3.36E+02,0.00E+00,0.00E+00,0.00E+00,0.00E+00,0.00E+00,0.00E+00,3.32E+02,3.32E+02,3.32E+02,3.31E+02,3.31E+02,3.30E+02,3.30E+02,3.30E+02,3.29E+02,3.29E+02,3.28E+02,3.28E+02,3.28E+02,3.27E+02,3.27E+02,3.27E+02,3.26E+02,3.26E+02,3.26E+02,3.25E+02,3.25E+02,3.25E+02,3.25E+02,3.24E+02,3.23E+02,3.23E+02,3.23E+02,3.23E+02,3.23E+02,3.22E+02,3.22E+02,3.22E+02,3.22E+02,3.22E+02,3.22E+02,3.22E+02,3.22E+02,3.22E+02,3.22E+02,3.22E+02,3.22E+02,3.22E+02,3.22E+02,3.22E+02,3.22E+02,3.22E+02,3.22E+02,3.22E+02,3.22E+02,3.22E+02,3.22E+02,3.22E+02,3.22E+02,3.22E+02,3.22E+02,3.22E+02,3.22E+02,3.22E+02,3.22E+02,3.22E+02,3.22E+02,3.22E+02,3.22E+02,3.22E+02,3.23E+02,3.23E+02,3.23E+02,3.23E+02,3.24E+02,3.24E+02,3.24E+02,3.25E+02,3.25E+02,3.26E+02,3.26E+02,3.26E+02,3.27E+02,3.27E+02,3.28E+02,3.28E+02,3.28E+02,3.30E+02,3.31E+02,3.31E+02,3.31E+02,3.32E+02,3.32E+02,3.33E+02,3.34E+02,3.34E+02,3.35E+02,3.36E+02,3.36E+02,3.38E+02,3.41E+02,3.41E+02,0.00E+00,0.00E+00,3.56E+02,3.56E+02,3.56E+02,0.00E+00,0.00E+00,0.00E+00,0.00E+00,0.00E+00,0.00E+00,3.98E+02,3.98E+02,3.98E+02,3.98E+02,3.98E+02,3.98E+02,3.98E+02,3.99E+02,3.99E+02,3.99E+02,3.99E+02,3.99E+02,3.99E+02,3.99E+02,3.99E+02,4.00E+02,3.99E+02,3.99E+02,3.99E+02,3.99E+02,3.99E+02,3.99E+02,3.99E+02,3.99E+02,3.99E+02,3.99E+02,3.99E+02,3.99E+02,3.99E+02,3.99E+02,3.99E+02,3.99E+02,3.99E+02,3.99E+02,3.99E+02,3.99E+02,3.99E+02,3.99E+02,3.99E+02,3.99E+02,3.99E+02,3.99E+02,3.99E+02,3.99E+02,3.99E+02,3.99E+02,3.99E+02,3.99E+02,3.99E+02,3.99E+02,3.99E+02,3.99E+02,3.99E+02,3.99E+02,3.98E+02
4.04E+02,4.04E+02,4.04E+02,4.04E+02,4.04E+02,4.04E+02,4.04E+02,4.03E+02,4.03E+02,4.03E+02,4.03E+02,4.03E+02,4.03E+02,4.03E+02,4.02E+02,4.02E+02,4.02E+02,4.02E+02,4.02E+02,4.01E+02,4.01E+02,4.01E+02,4.01E+02,4.01E+02,4.01E+02,4.01E+02,4.01E+02,4.01E+02,4.01E+02,4.01E+02,4.01E+02,4.02E+02,4.02E+02,4.02E+02,4.02E+02,4.02E+02,4.02E+02,4.02E+02,4.02E+02,4.02E+02,4.02E+02,4.02E+02,4.02E+02,4.02E+02,4.02E+02,4.02E+02,4.02E+02,4.01E+02,4.01E+02,4.01E+02,4.01E+02,4.01E+02,4.01E+02,4.01E+02,4.01E+02,4.01E+02,4.01E+02,4.01E+02,4.01E+02,4.01E+02,4.01E+02,4.01E+02,4.01E+02,4.01E+02,4.00E+02,4.00E+02,4.00E+02,4.00E+02,3.99E+02,3.99E+02,3.99E+02,3.99E+02,3.99E+02,3.99E+02,3.99E+02,3.99E+02,3.98E+02,3.98E+02,3.98E+02,3.98E+02,3.98E+02,3.98E+02,3.98E+02,3.98E+02,3.99E+02,3.99E+02,3.99E+02,4.00E+02,4.00E+02,4.00E+02,4.00E+02,4.00E+02,4.00E+02,4.00E+02,4.00E+02,4.01E+02,4.01E+02,4.01E+02,4.01E+02,4.01E+02,4.01E+02,4.01E+02,4.01E+02,4.01E+02,4.01E+02,4.01E+02,4.01E+02,4.01E+02,4.01E+02,4.01E+02,4.01E+02,4.01E+02,4.01E+02,4.01E+02,4.01E+02,4.01E+02,4.01E+02,4.01E+02,4.01E+02,4.01E+02,4.01E+02,4.01E+02,4.01E+02,4.00E+02,4.00E+02,4.00E+02,4.00E+02,4.01E+02,4.01E+02,4.01E+02,4.01E+02,0.00E+00,0.00E+00,0.00E+00,0.00E+00,0.00E+00,0.00E+00,0.00E+00,0.00E+00,0.00E+00,0.00E+00,0.00E+00,0.00E+00,0.00E+00,0.00E+00,0.00E+00,0.00E+00,0.00E+00,0.00E+00,0.00E+00,0.00E+00,0.00E+00,0.00E+00,0.00E+00,0.00E+00,0.00E+00,0.00E+00,3.37E+02,3.37E+02,3.37E+02,3.36E+02,3.36E+02,3.36E+02,0.00E+00,0.00E+00,0.00E+00,0.00E+00,0.00E+00,0.00E+00,3.32E+02,3.32E+02,3.32E+02,3.31E+02,3.31E+02,3.30E+02,3.30E+02,3.30E+02,3.29E+02,3.29E+02,3.28E+02,3.28E+02,3.28E+02,3.27E+02,3.27E+02,3.27E+02,3.26E+02,3.26E+02,3.26E+02,3.25E+02,3.25E+02,3.25E+02,3.25E+02,3.24E+02,3.24E+02,3.24E+02,3.23E+02,3.23E+02,3.23E+02,3.23E+02,3.23E+02,3.23E+02,3.23E+02,3.23E+02,3.22E+02,3.22E+02,3.22E+02,3.23E+02,3.23E+02,3.23E+02,3.23E+02,3.23E+02,3.23E+02,3.23E+02,3.23E+02,3.23E+02,3.23E+02,3.23E+02,3.23E+02,3.23E+02,3.23E+02,3.23E+02,3.22E+02,3.22E+02,3.23E+02,3.22E+02,3.22E+02,3.22E+02,3.22E+02,3.22E+02,3.23E+02,3.23E+02,3.23E+02,3.23E+02,3.23E+02,3.24E+02,3.24E+02,3.24E+02,3.24E+02,3.24E+02,3.25E+02,3.26E+02,3.26E+02,3.26E+02,3.27E+02,3.27E+02,3.28E+02,3.28E+02,3.28E+02,3.29E+02,3.29E+02,3.30E+02,3.31E+02,3.31E+02,3.32E+02,3.32E+02,3.32E+02,3.33E+02,3.34E+02,3.34E+02,3.35E+02,3.36E+02,3.36E+02,3.38E+02,3.41E+02,3.41E+02,0.00E+00,0.00E+00,3.56E+02,3.56E+02,3.56E+02,0.00E+00,0.00E+00,0.00E+00,0.00E+00,3.97E+02,3.97E+02,3.97E+02,3.97E+02,3.98E+02,3.98E+02,3.98E+02,3.98E+02,3.98E+02,3.99E+02,3.99E+02,3.99E+02,3.99E+02,3.99E+02,3.99E+02,3.99E+02,3.99E+02,4.00E+02,4.00E+02,3.99E+02,3.99E+02,3.99E+02,3.99E+02,3.99E+02,3.99E+02,3.99E+02,3.99E+02,3.99E+02,3.99E+02,3.99E+02,3.99E+02,3.99E+02,3.99E+02,3.99E+02,3.99E+02,3.99E+02,3.99E+02,3.99E+02,3.99E+02,3.99E+02,3.99E+02,3.99E+02,3.99E+02,3.99E+02,3.99E+02,3.99E+02,3.99E+02,3.99E+02,3.99E+02,3.99E+02,3.99E+02,3.99E+02,3.99E+02,3.99E+02,3.99E+02,3.99E+02,3.99E+02
4.04E+02,4.04E+02,4.04E+02,4.04E+02,4.04E+02,4.04E+02,4.04E+02,4.03E+02,4.03E+02,4.03E+02,4.03E+02,4.03E+02,4.03E+02,4.03E+02,4.02E+02,4.02E+02,4.02E+02,4.02E+02,4.02E+02,4.01E+02,4.01E+02,4.01E+02,4.01E+02,4.01E+02,4.01E+02,4.01E+02,4.01E+02,4.01E+02,4.01E+02,4.01E+02,4.01E+02,4.01E+02,4.02E+02,4.02E+02,4.02E+02,4.02E+02,4.02E+02,4.02E+02,4.02E+02,4.02E+02,4.02E+02,4.02E+02,4.02E+02,4.02E+02,4.02E+02,4.02E+02,4.01E+02,4.01E+02,4.01E+02,4.01E+02,4.01E+02,4.01E+02,4.01E+02,4.01E+02,4.01E+02,4.01E+02,4.01E+02,4.01E+02,4.01E+02,4.01E+02,4.01E+02,4.01E+02,4.01E+02,4.01E+02,4.01E+02,4.01E+02,4.01E+02,4.00E+02,4.00E+02,4.00E+02,4.00E+02,4.00E+02,3.99E+02,3.99E+02,3.99E+02,3.99E+02,3.98E+02,3.98E+02,3.98E+02,3.99E+02,3.98E+02,3.98E+02,3.99E+02,3.99E+02,3.99E+02,3.99E+02,3.99E+02,4.00E+02,4.00E+02,4.00E+02,4.00E+02,4.00E+02,4.00E+02,4.00E+02,4.00E+02,4.01E+02,4.01E+02,4.01E+02,4.01E+02,4.01E+02,4.01E+02,4.01E+02,4.01E+02,4.01E+02,4.01E+02,4.01E+02,4.01E+02,4.01E+02,4.01E+02,4.01E+02,4.01E+02,4.01E+02,4.01E+02,4.01E+02,4.01E+02,4.01E+02,4.01E+02,4.01E+02,4.01E+02,4.01E+02,4.01E+02,4.01E+02,4.01E+02,4.00E+02,4.00E+02,4.00E+02,4.00E+02,4.01E+02,4.01E+02,4.01E+02,4.01E+02,4.01E+02,4.01E+02,4.02E+02,4.02E+02,4.02E+02,0.00E+00,0.00E+00,0.00E+00,0.00E+00,0.00E+00,0.00E+00,0.00E+00,0.00E+00,0.00E+00,0.00E+00,0.00E+00,0.00E+00,0.00E+00,0.00E+00,0.00E+00,0.00E+00,0.00E+00,0.00E+00,0.00E+00,0.00E+00,0.00E+00,3.38E+02,3.38E+02,3.38E+02,3.37E+02,3.37E+02,3.37E+02,3.38E+02,0.00E+00,0.00E+00,0.00E+00,3.35E+02,3.34E+02,3.33E+02,3.33E+02,3.33E+02,3.32E+02,3.31E+02,3.31E+02,3.30E+02,3.30E+02,3.30E+02,3.29E+02,3.29E+02,3.28E+02,3.28E+02,3.28E+02,3.27E+02,3.27E+02,3.27E+02,3.27E+02,3.26E+02,3.26E+02,3.26E+02,3.25E+02,3.25E+02,3.24E+02,3.24E+02,3.24E+02,3.24E+02,3.24E+02,3.23E+02,3.23E+02,3.23E+02,3.23E+02,3.23E+02,3.23E+02,3.23E+02,3.23E+02,3.23E+02,3.23E+02,3.23E+02,3.23E+02,3.23E+02,3.23E+02,3.23E+02,3.23E+02,3.23E+02,3.23E+02,3.23E+02,3.23E+02,3.23E+02,3.23E+02,3.23E+02,3.23E+02,3.22E+02,3.22E+02,3.23E+02,3.22E+02,3.22E+02,3.22E+02,3.22E+02,3.22E+02,3.23E+02,3.23E+02,3.23E+02,3.23E+02,3.23E+02,3.24E+02,3.24E+02,3.24E+02,3.24E+02,3.24E+02,3.25E+02,3.26E+02,3.26E+02,3.26E+02,3.27E+02,3.27E+02,3.28E+02,3.28E+02,3.28E+02,3.29E+02,3.29E+02,3.30E+02,3.31E+02,3.31E+02,3.32E+02,3.33E+02,3.33E+02,3.34E+02,3.34E+02,3.34E+02,3.36E+02,3.37E+02,3.37E+02,3.39E+02,3.42E+02,0.00E+00,3.47E+02,3.47E+02,3.50E+02,3.50E+02,0.00E+00,0.00E+00,0.00E+00,0.00E+00,0.00E+00,3.97E+02,3.97E+02,3.97E+02,3.97E+02,3.98E+02,3.98E+02,3.98E+02,3.98E+02,3.98E+02,3.99E+02,3.99E+02,3.99E+02,3.99E+02,3.99E+02,3.99E+02,3.99E+02,3.99E+02,4.00E+02,4.00E+02,3.99E+02,3.99E+02,3.99E+02,3.99E+02,3.99E+02,3.99E+02,3.99E+02,3.99E+02,3.99E+02,3.99E+02,3.99E+02,3.99E+02,3.99E+02,3.99E+02,3.99E+02,3.99E+02,3.99E+02,3.99E+02,3.99E+02,3.99E+02,3.99E+02,3.99E+02,3.99E+02,3.99E+02,3.99E+02,3.99E+02,3.99E+02,3.99E+02,3.99E+02,3.99E+02,3.99E+02,3.99E+02,3.99E+02,3.99E+02,3.99E+02,3.99E+02,3.99E+02,3.99E+02
4.04E+02,4.04E+02,4.04E+02,4.04E+02,4.04E+02,4.04E+02,4.04E+02,4.03E+02,4.03E+02,4.03E+02,4.03E+02,4.03E+02,4.02E+02,4.02E+02,4.02E+02,4.02E+02,4.02E+02,4.01E+02,4.01E+02,4.01E+02,4.01E+02,4.01E+02,4.01E+02,4.01E+02,4.01E+02,4.01E+02,4.01E+02,4.01E+02,4.01E+02,4.01E+02,4.01E+02,4.01E+02,4.01E+02,4.01E+02,4.01E+02,4.01E+02,4.02E+02,4.02E+02,4.02E+02,4.02E+02,4.02E+02,4.02E+02,4.02E+02,4.02E+02,4.02E+02,4.02E+02,4.01E+02,4.01E+02,4.01E+02,4.01E+02,4.01E+02,4.01E+02,4.01E+02,4.01E+02,4.01E+02,4.01E+02,4.01E+02,4.01E+02,4.01E+02,4.01E+02,4.01E+02,4.01E+02,4.01E+02,4.01E+02,4.01E+02,4.01E+02,4.01E+02,4.01E+02,4.00E+02,4.00E+02,4.00E+02,4.00E+02,3.99E+02,3.99E+02,3.99E+02,3.99E+02,3.99E+02,3.99E+02,3.99E+02,3.99E+02,3.99E+02,3.99E+02,3.99E+02,3.99E+02,3.99E+02,3.99E+02,3.99E+02,4.00E+02,4.00E+02,4.00E+02,4.00E+02,4.00E+02,4.00E+02,4.00E+02,4.00E+02,4.00E+02,4.01E+02,4.01E+02,4.01E+02,4.01E+02,4.01E+02,4.01E+02,4.01E+02,4.01E+02,4.01E+02,4.01E+02,4.01E+02,4.01E+02,4.01E+02,4.01E+02,4.01E+02,4.01E+02,4.01E+02,4.01E+02,4.01E+02,4.01E+02,4.01E+02,4.01E+02,4.01E+02,4.01E+02,4.01E+02,4.01E+02,4.00E+02,4.00E+02,4.00E+02,4.00E+02,4.00E+02,4.01E+02,4.01E+02,4.01E+02,4.01E+02,4.01E+02,4.01E+02,4.01E+02,4.01E+02,4.02E+02,4.02E+02,4.02E+02,0.00E+00,0.00E+00,0.00E+00,0.00E+00,0.00E+00,0.00E+00,0.00E+00,0.00E+00,0.00E+00,0.00E+00,0.00E+00,0.00E+00,0.00E+00,0.00E+00,0.00E+00,0.00E+00,0.00E+00,0.00E+00,0.00E+00,0.00E+00,0.00E+00,3.39E+02,3.38E+02,3.38E+02,3.38E+02,3.38E+02,0.00E+00,0.00E+00,0.00E+00,3.35E+02,3.34E+02,3.34E+02,3.33E+02,3.33E+02,3.33E+02,3.31E+02,3.31E+02,3.31E+02,3.31E+02,3.30E+02,3.29E+02,3.29E+02,3.29E+02,3.29E+02,3.28E+02,3.27E+02,3.27E+02,3.27E+02,3.27E+02,3.26E+02,3.26E+02,3.26E+02,3.25E+02,3.25E+02,3.24E+02,3.24E+02,3.24E+02,3.24E+02,3.24E+02,3.23E+02,3.23E+02,3.23E+02,3.23E+02,3.23E+02,3.23E+02,3.23E+02,3.23E+02,3.23E+02,3.23E+02,3.23E+02,3.23E+02,3.23E+02,3.23E+02,3.23E+02,3.23E+02,3.23E+02,3.23E+02,3.23E+02,3.23E+02,3.23E+02,3.23E+02,3.23E+02,3.23E+02,3.23E+02,3.23E+02,3.23E+02,3.23E+02,3.23E+02,3.23E+02,3.23E+02,3.23E+02,3.23E+02,3.23E+02,3.23E+02,3.23E+02,3.24E+02,3.24E+02,3.24E+02,3.25E+02,3.25E+02,3.25E+02,3.26E+02,3.26E+02,3.26E+02,3.27E+02,3.28E+02,3.28E+02,3.28E+02,3.29E+02,3.29E+02,3.30E+02,3.31E+02,3.31E+02,3.32E+02,3.33E+02,3.33E+02,3.33E+02,3.33E+02,3.34E+02,3.35E+02,3.35E+02,3.36E+02,3.37E+02,3.37E+02,3.39E+02,3.42E+02,0.00E+00,3.47E+02,3.47E+02,3.50E+02,3.50E+02,0.00E+00,0.00E+00,0.00E+00,0.00E+00,0.00E+00,0.00E+00,0.00E+00,3.98E+02,3.98E+02,3.98E+02,3.98E+02,3.98E+02,3.98E+02,3.98E+02,3.99E+02,3.99E+02,3.99E+02,3.99E+02,3.99E+02,3.99E+02,3.99E+02,3.99E+02,3.99E+02,3.99E+02,3.99E+02,3.99E+02,3.99E+02,3.99E+02,3.99E+02,3.99E+02,3.99E+02,3.99E+02,3.99E+02,3.99E+02,3.99E+02,3.99E+02,3.99E+02,3.99E+02,3.99E+02,3.99E+02,3.99E+02,3.99E+02,3.99E+02,3.99E+02,3.99E+02,3.99E+02,3.99E+02,3.99E+02,3.99E+02,3.99E+02,3.99E+02,3.99E+02,3.99E+02,3.99E+02,3.99E+02,3.99E+02,3.99E+02,3.99E+02,3.99E+02,3.99E+02,3.99E+02,3.99E+02
4.04E+02,4.04E+02,4.04E+02,4.04E+02,4.04E+02,4.04E+02,4.03E+02,4.03E+02,4.03E+02,4.03E+02,4.03E+02,4.03E+02,4.02E+02,4.02E+02,4.02E+02,4.02E+02,4.02E+02,4.01E+02,4.01E+02,4.01E+02,4.01E+02,4.01E+02,4.01E+02,4.01E+02,4.01E+02,4.01E+02,4.01E+02,4.01E+02,4.01E+02,4.01E+02,4.01E+02,4.01E+02,4.01E+02,4.01E+02,4.01E+02,4.01E+02,4.02E+02,4.02E+02,4.02E+02,4.02E+02,4.02E+02,4.02E+02,4.02E+02,4.02E+02,4.02E+02,4.02E+02,4.01E+02,4.01E+02,4.01E+02,4.01E+02,4.01E+02,4.01E+02,4.01E+02,4.01E+02,4.01E+02,4.01E+02,4.01E+02,4.01E+02,4.01E+02,4.01E+02,4.01E+02,4.01E+02,4.01E+02,4.01E+02,4.01E+02,4.01E+02,4.01E+02,4.01E+02,4.00E+02,4.00E+02,4.00E+02,4.00E+02,3.99E+02,3.99E+02,3.99E+02,3.99E+02,3.99E+02,3.99E+02,3.99E+02,3.99E+02,3.99E+02,3.99E+02,3.99E+02,3.99E+02,3.99E+02,3.99E+02,3.99E+02,3.99E+02,4.00E+02,4.00E+02,4.00E+02,4.00E+02,4.00E+02,4.00E+02,4.00E+02,4.00E+02,4.00E+02,4.00E+02,4.00E+02,4.00E+02,4.00E+02,4.01E+02,4.01E+02,4.01E+02,4.01E+02,4.01E+02,4.01E+02,4.01E+02,4.01E+02,4.01E+02,4.01E+02,4.01E+02,4.01E+02,4.01E+02,4.01E+02,4.01E+02,4.01E+02,4.01E+02,4.01E+02,4.01E+02,4.01E+02,4.01E+02,4.00E+02,4.00E+02,4.00E+02,4.00E+02,4.00E+02,4.01E+02,4.01E+02,4.01E+02,4.01E+02,4.01E+02,4.01E+02,4.01E+02,4.01E+02,4.02E+02,4.02E+02,4.02E+02,0.00E+00,0.00E+00,0.00E+00,0.00E+00,0.00E+00,0.00E+00,0.00E+00,0.00E+00,0.00E+00,0.00E+00,0.00E+00,0.00E+00,0.00E+00,0.00E+00,0.00E+00,0.00E+00,0.00E+00,0.00E+00,0.00E+00,0.00E+00,3.39E+02,3.39E+02,3.38E+02,3.38E+02,3.38E+02,3.38E+02,3.38E+02,3.37E+02,3.37E+02,3.35E+02,3.34E+02,3.34E+02,3.33E+02,3.33E+02,3.33E+02,3.31E+02,3.31E+02,3.31E+02,3.31E+02,3.30E+02,3.29E+02,3.29E+02,3.29E+02,3.29E+02,3.28E+02,3.28E+02,3.28E+02,3.27E+02,3.27E+02,3.27E+02,3.26E+02,3.26E+02,3.26E+02,3.26E+02,3.25E+02,3.24E+02,3.24E+02,3.24E+02,3.24E+02,3.24E+02,3.24E+02,3.24E+02,3.24E+02,3.24E+02,3.24E+02,3.23E+02,3.23E+02,3.24E+02,3.24E+02,3.24E+02,3.24E+02,3.24E+02,3.24E+02,3.24E+02,3.24E+02,3.24E+02,3.24E+02,3.24E+02,3.24E+02,3.24E+02,3.24E+02,3.24E+02,3.23E+02,3.23E+02,3.23E+02,3.24E+02,3.23E+02,3.23E+02,3.23E+02,3.23E+02,3.24E+02,3.24E+02,3.24E+02,3.24E+02,3.24E+02,3.24E+02,3.25E+02,3.25E+02,3.25E+02,3.26E+02,3.26E+02,3.26E+02,3.27E+02,3.27E+02,3.28E+02,3.28E+02,3.28E+02,3.28E+02,3.29E+02,3.29E+02,3.30E+02,3.31E+02,3.31E+02,3.32E+02,3.33E+02,3.33E+02,3.33E+02,3.33E+02,3.34E+02,3.35E+02,3.35E+02,3.36E+02,3.37E+02,3.37E+02,3.39E+02,3.41E+02,3.44E+02,3.44E+02,3.46E+02,3.50E+02,3.50E+02,0.00E+00,0.00E+00,0.00E+00,0.00E+00,0.00E+00,0.00E+00,0.00E+00,3.98E+02,3.98E+02,3.98E+02,3.98E+02,3.98E+02,3.98E+02,3.98E+02,3.99E+02,3.99E+02,3.99E+02,3.99E+02,3.99E+02,3.99E+02,3.99E+02,3.99E+02,3.99E+02,3.99E+02,3.99E+02,3.99E+02,3.99E+02,3.99E+02,3.99E+02,3.99E+02,3.99E+02,3.99E+02,3.99E+02,3.99E+02,3.99E+02,3.99E+02,3.99E+02,3.99E+02,3.99E+02,3.99E+02,3.99E+02,3.99E+02,3.99E+02,3.99E+02,3.99E+02,3.99E+02,3.99E+02,3.99E+02,3.99E+02,3.99E+02,3.99E+02,3.99E+02,3.99E+02,3.99E+02,3.99E+02,3.99E+02,3.99E+02,3.99E+02,3.99E+02,3.99E+02,3.99E+02,3.99E+02
4.04E+02,4.04E+02,4.04E+02,4.04E+02,4.04E+02,4.04E+02,4.03E+02,4.03E+02,4.03E+02,4.03E+02,4.03E+02,4.03E+02,4.02E+02,4.02E+02,4.02E+02,4.02E+02,4.02E+02,4.01E+02,4.01E+02,4.01E+02,4.01E+02,4.01E+02,4.01E+02,4.01E+02,4.01E+02,4.01E+02,4.01E+02,4.01E+02,4.01E+02,4.01E+02,4.01E+02,4.01E+02,4.01E+02,4.01E+02,4.01E+02,4.01E+02,4.01E+02,4.02E+02,4.02E+02,4.02E+02,4.02E+02,4.02E+02,4.02E+02,4.01E+02,4.01E+02,4.01E+02,4.01E+02,4.01E+02,4.01E+02,4.01E+02,4.01E+02,4.01E+02,4.01E+02,4.01E+02,4.01E+02,4.01E+02,4.01E+02,4.01E+02,4.01E+02,4.01E+02,4.01E+02,4.02E+02,4.02E+02,4.01E+02,4.01E+02,4.01E+02,4.01E+02,4.01E+02,4.01E+02,4.01E+02,4.00E+02,4.00E+02,4.00E+02,3.99E+02,3.99E+02,3.99E+02,3.99E+02,3.99E+02,3.99E+02,3.99E+02,3.99E+02,3.99E+02,3.99E+02,3.99E+02,3.99E+02,3.99E+02,3.99E+02,3.99E+02,4.00E+02,4.00E+02,4.00E+02,4.00E+02,4.00E+02,4.00E+02,4.00E+02,4.00E+02,4.00E+02,4.00E+02,4.00E+02,4.00E+02,4.00E+02,4.01E+02,4.01E+02,4.01E+02,4.01E+02,4.01E+02,4.01E+02,4.01E+02,4.01E+02,4.01E+02,4.01E+02,4.01E+02,4.01E+02,4.01E+02,4.01E+02,4.01E+02,4.01E+02,4.01E+02,4.01E+02,4.01E+02,4.01E+02,4.01E+02,4.00E+02,4.00E+02,4.00E+02,4.00E+02,4.00E+02,4.01E+02,4.01E+02,4.01E+02,4.01E+02,4.01E+02,4.01E+02,4.01E+02,4.01E+02,4.02E+02,4.02E+02,4.02E+02,4.03E+02,4.03E+02,4.03E+02,0.00E+00,0.00E+00,0.00E+00,0.00E+00,0.00E+00,0.00E+00,0.00E+00,0.00E+00,0.00E+00,0.00E+00,0.00E+00,0.00E+00,0.00E+00,0.00E+00,0.00E+00,0.00E+00,0.00E+00,3.39E+02,3.39E+02,3.39E+02,3.39E+02,3.39E+02,3.38E+02,3.38E+02,3.37E+02,3.37E+02,3.36E+02,3.35E+02,3.35E+02,3.34E+02,3.34E+02,3.33E+02,3.32E+02,3.32E+02,3.31E+02,3.31E+02,3.30E+02,3.30E+02,3.30E+02,3.29E+02,3.29E+02,3.28E+02,3.28E+02,3.28E+02,3.27E+02,3.27E+02,3.27E+02,3.26E+02,3.26E+02,3.26E+02,3.26E+02,3.25E+02,3.25E+02,3.25E+02,3.25E+02,3.24E+02,3.24E+02,3.24E+02,3.24E+02,3.24E+02,3.24E+02,3.24E+02,3.24E+02,3.24E+02,3.24E+02,3.24E+02,3.24E+02,3.24E+02,3.24E+02,3.24E+02,3.24E+02,3.24E+02,3.24E+02,3.24E+02,3.24E+02,3.24E+02,3.24E+02,3.24E+02,3.24E+02,3.23E+02,3.23E+02,3.23E+02,3.24E+02,3.23E+02,3.23E+02,3.23E+02,3.23E+02,3.24E+02,3.24E+02,3.24E+02,3.24E+02,3.24E+02,3.24E+02,3.25E+02,3.25E+02,3.25E+02,3.26E+02,3.26E+02,3.26E+02,3.27E+02,3.27E+02,3.28E+02,3.28E+02,3.28E+02,3.29E+02,3.30E+02,3.30E+02,3.31E+02,3.32E+02,3.32E+02,3.32E+02,3.33E+02,3.33E+02,3.34E+02,3.35E+02,3.35E+02,3.35E+02,3.35E+02,3.37E+02,3.38E+02,3.38E+02,3.39E+02,3.41E+02,3.44E+02,3.44E+02,3.46E+02,3.50E+02,3.50E+02,0.00E+00,0.00E+00,0.00E+00,0.00E+00,0.00E+00,0.00E+00,0.00E+00,3.98E+02,3.98E+02,3.98E+02,3.98E+02,3.98E+02,3.99E+02,3.99E+02,3.99E+02,3.99E+02,3.99E+02,3.99E+02,3.99E+02,3.99E+02,3.99E+02,3.99E+02,3.99E+02,3.99E+02,3.99E+02,3.99E+02,3.99E+02,3.99E+02,3.99E+02,3.99E+02,3.99E+02,3.99E+02,3.99E+02,3.99E+02,3.99E+02,3.99E+02,3.99E+02,3.99E+02,3.99E+02,3.99E+02,3.99E+02,3.99E+02,3.99E+02,3.99E+02,3.99E+02,3.99E+02,3.99E+02,3.99E+02,3.99E+02,3.99E+02,3.99E+02,3.99E+02,3.99E+02,3.99E+02,3.99E+02,3.99E+02,3.99E+02,3.99E+02,3.99E+02,3.99E+02,3.99E+02,3.99E+02
4.04E+02,4.04E+02,4.04E+02,4.04E+02,4.04E+02,4.04E+02,4.03E+02,4.03E+02,4.03E+02,4.03E+02,4.03E+02,4.02E+02,4.02E+02,4.02E+02,4.02E+02,4.02E+02,4.02E+02,4.01E+02,4.01E+02,4.01E+02,4.01E+02,4.01E+02,4.01E+02,4.01E+02,4.01E+02,4.01E+02,4.01E+02,4.01E+02,4.01E+02,4.01E+02,4.01E+02,4.01E+02,4.01E+02,4.01E+02,4.01E+02,4.01E+02,4.01E+02,4.01E+02,4.01E+02,4.01E+02,4.02E+02,4.02E+02,4.02E+02,4.01E+02,4.01E+02,4.01E+02,4.01E+02,4.01E+02,4.01E+02,4.01E+02,4.01E+02,4.01E+02,4.01E+02,4.01E+02,4.01E+02,4.01E+02,4.01E+02,4.01E+02,4.01E+02,4.01E+02,4.02E+02,4.02E+02,4.02E+02,4.02E+02,4.02E+02,4.01E+02,4.01E+02,4.01E+02,4.01E+02,4.01E+02,4.00E+02,4.00E+02,4.00E+02,3.99E+02,3.99E+02,3.99E+02,3.99E+02,3.99E+02,3.99E+02,3.99E+02,3.99E+02,3.99E+02,3.99E+02,3.99E+02,3.99E+02,3.99E+02,3.99E+02,3.99E+02,4.00E+02,4.00E+02,4.00E+02,4.00E+02,4.00E+02,4.00E+02,4.00E+02,4.00E+02,4.00E+02,4.00E+02,4.00E+02,4.00E+02,4.00E+02,4.00E+02,4.00E+02,4.01E+02,4.01E+02,4.01E+02,4.01E+02,4.01E+02,4.01E+02,4.01E+02,4.01E+02,4.01E+02,4.01E+02,4.01E+02,4.01E+02,4.01E+02,4.00E+02,4.00E+02,4.00E+02,4.00E+02,4.00E+02,4.00E+02,4.00E+02,4.00E+02,4.00E+02,4.00E+02,4.00E+02,4.00E+02,4.01E+02,4.01E+02,4.01E+02,4.01E+02,4.01E+02,4.01E+02,4.01E+02,4.02E+02,4.02E+02,4.02E+02,4.03E+02,4.03E+02,4.03E+02,0.00E+00,0.00E+00,0.00E+00,0.00E+00,0.00E+00,0.00E+00,0.00E+00,0.00E+00,0.00E+00,0.00E+00,0.00E+00,0.00E+00,0.00E+00,0.00E+00,0.00E+00,0.00E+00,0.00E+00,0.00E+00,0.00E+00,3.40E+02,3.40E+02,3.39E+02,3.38E+02,3.38E+02,3.38E+02,3.38E+02,3.37E+02,3.36E+02,3.36E+02,3.34E+02,3.34E+02,3.33E+02,3.32E+02,3.32E+02,3.31E+02,3.31E+02,3.30E+02,3.30E+02,3.30E+02,3.29E+02,3.29E+02,3.28E+02,3.28E+02,3.28E+02,3.27E+02,3.27E+02,3.27E+02,3.26E+02,3.26E+02,3.26E+02,3.26E+02,3.25E+02,3.25E+02,3.25E+02,3.25E+02,3.24E+02,3.24E+02,3.24E+02,3.24E+02,3.24E+02,3.24E+02,3.24E+02,3.24E+02,3.24E+02,3.24E+02,3.24E+02,3.24E+02,3.24E+02,3.24E+02,3.24E+02,3.24E+02,3.24E+02,3.24E+02,3.24E+02,3.24E+02,3.24E+02,3.24E+02,3.24E+02,3.24E+02,3.24E+02,3.24E+02,3.24E+02,3.24E+02,3.24E+02,3.24E+02,3.24E+02,3.24E+02,3.25E+02,3.25E+02,3.25E+02,3.25E+02,3.25E+02,3.25E+02,3.25E+02,3.25E+02,3.26E+02,3.26E+02,3.26E+02,3.27E+02,3.28E+02,3.28E+02,3.28E+02,3.29E+02,3.29E+02,3.30E+02,3.30E+02,3.30E+02,3.31E+02,3.32E+02,3.32E+02,3.33E+02,3.34E+02,3.34E+02,3.35E+02,3.36E+02,3.36E+02,3.36E+02,3.37E+02,3.37E+02,3.39E+02,3.40E+02,3.40E+02,3.42E+02,3.44E+02,3.44E+02,3.46E+02,3.50E+02,3.50E+02,3.96E+02,3.96E+02,3.96E+02,3.97E+02,3.97E+02,3.97E+02,3.98E+02,3.98E+02,3.98E+02,3.98E+02,3.98E+02,3.98E+02,3.99E+02,3.99E+02,3.99E+02,3.99E+02,3.99E+02,3.99E+02,3.99E+02,3.99E+02,3.99E+02,3.99E+02,3.99E+02,3.99E+02,3.99E+02,3.99E+02,3.99E+02,3.99E+02,3.99E+02,3.99E+02,3.99E+02,3.99E+02,3.99E+02,3.99E+02,3.99E+02,3.99E+02,3.99E+02,3.99E+02,3.99E+02,3.99E+02,3.99E+02,3.99E+02,3.99E+02,3.99E+02,3.99E+02,3.99E+02,3.99E+02,3.99E+02,3.99E+02,3.99E+02,3.99E+02,3.99E+02,3.99E+02,3.99E+02,3.99E+02,3.99E+02,3.99E+02,3.99E+02,3.99E+02,3.99E+02,3.99E+02,3.99E+02
4.04E+02,4.04E+02,4.04E+02,4.04E+02,4.04E+02,4.04E+02,4.03E+02,4.03E+02,4.03E+02,4.03E+02,4.03E+02,4.02E+02,4.02E+02,4.02E+02,4.02E+02,4.02E+02,4.02E+02,4.01E+02,4.01E+02,4.01E+02,4.01E+02,4.01E+02,4.01E+02,4.01E+02,4.01E+02,4.01E+02,4.01E+02,4.01E+02,4.01E+02,4.01E+02,4.01E+02,4.01E+02,4.01E+02,4.01E+02,4.01E+02,4.01E+02,4.01E+02,4.01E+02,4.01E+02,4.01E+02,4.01E+02,4.01E+02,4.01E+02,4.01E+02,4.01E+02,4.01E+02,4.01E+02,4.01E+02,4.01E+02,4.01E+02,4.01E+02,4.01E+02,4.01E+02,4.01E+02,4.01E+02,4.01E+02,4.01E+02,4.01E+02,4.01E+02,4.01E+02,4.02E+02,4.02E+02,4.02E+02,4.02E+02,4.02E+02,4.01E+02,4.01E+02,4.01E+02,4.01E+02,4.01E+02,4.00E+02,4.00E+02,4.00E+02,3.99E+02,3.99E+02,3.99E+02,3.99E+02,3.99E+02,3.99E+02,3.99E+02,3.99E+02,3.99E+02,3.99E+02,3.99E+02,3.99E+02,3.99E+02,3.99E+02,3.99E+02,4.00E+02,4.00E+02,4.00E+02,4.00E+02,4.00E+02,4.00E+02,4.00E+02,4.00E+02,4.00E+02,4.00E+02,4.00E+02,4.00E+02,4.00E+02,4.00E+02,4.00E+02,4.01E+02,4.01E+02,4.01E+02,4.01E+02,4.01E+02,4.01E+02,4.01E+02,4.01E+02,4.01E+02,4.01E+02,4.01E+02,4.01E+02,4.01E+02,4.00E+02,4.00E+02,4.00E+02,4.00E+02,4.00E+02,4.00E+02,4.00E+02,4.00E+02,4.00E+02,4.00E+02,4.00E+02,4.00E+02,4.01E+02,4.01E+02,4.01E+02,4.01E+02,4.01E+02,4.01E+02,4.01E+02,4.02E+02,4.02E+02,4.02E+02,4.02E+02,4.02E+02,4.02E+02,0.00E+00,0.00E+00,0.00E+00,0.00E+00,0.00E+00,0.00E+00,0.00E+00,0.00E+00,0.00E+00,0.00E+00,0.00E+00,0.00E+00,0.00E+00,0.00E+00,0.00E+00,0.00E+00,0.00E+00,0.00E+00,0.00E+00,3.40E+02,3.40E+02,3.39E+02,3.38E+02,3.38E+02,3.38E+02,3.38E+02,3.37E+02,3.36E+02,3.36E+02,3.35E+02,3.35E+02,3.34E+02,3.33E+02,3.33E+02,3.32E+02,3.32E+02,3.31E+02,3.30E+02,3.30E+02,3.29E+02,3.29E+02,3.29E+02,3.28E+02,3.28E+02,3.28E+02,3.28E+02,3.27E+02,3.27E+02,3.27E+02,3.26E+02,3.26E+02,3.26E+02,3.26E+02,3.26E+02,3.25E+02,3.25E+02,3.25E+02,3.25E+02,3.25E+02,3.24E+02,3.24E+02,3.24E+02,3.24E+02,3.24E+02,3.24E+02,3.24E+02,3.25E+02,3.25E+02,3.25E+02,3.25E+02,3.25E+02,3.25E+02,3.25E+02,3.25E+02,3.25E+02,3.25E+02,3.25E+02,3.25E+02,3.25E+02,3.25E+02,3.25E+02,3.25E+02,3.24E+02,3.24E+02,3.24E+02,3.24E+02,3.24E+02,3.25E+02,3.25E+02,3.25E+02,3.25E+02,3.25E+02,3.25E+02,3.25E+02,3.25E+02,3.26E+02,3.26E+02,3.26E+02,3.27E+02,3.28E+02,3.28E+02,3.28E+02,3.29E+02,3.29E+02,3.30E+02,3.30E+02,3.30E+02,3.31E+02,3.32E+02,3.32E+02,3.33E+02,3.34E+02,3.34E+02,3.35E+02,3.36E+02,3.36E+02,3.36E+02,3.37E+02,3.37E+02,3.39E+02,3.40E+02,3.40E+02,3.42E+02,3.44E+02,3.44E+02,3.46E+02,0.00E+00,3.96E+02,3.96E+02,3.96E+02,3.96E+02,3.97E+02,3.97E+02,3.97E+02,3.98E+02,3.98E+02,3.98E+02,3.99E+02,3.99E+02,3.99E+02,3.99E+02,3.99E+02,3.99E+02,3.99E+02,3.99E+02,4.00E+02,4.00E+02,4.00E+02,4.00E+02,4.00E+02,4.00E+02,4.00E+02,4.00E+02,4.00E+02,4.00E+02,3.99E+02,3.99E+02,3.99E+02,3.99E+02,3.99E+02,3.99E+02,3.99E+02,3.99E+02,3.99E+02,3.99E+02,3.99E+02,3.99E+02,3.99E+02,3.99E+02,3.99E+02,3.99E+02,3.99E+02,3.99E+02,3.99E+02,3.99E+02,3.99E+02,3.99E+02,3.99E+02,3.99E+02,3.99E+02,3.99E+02,3.99E+02,3.99E+02,3.99E+02,3.99E+02,3.99E+02,3.99E+02,3.99E+02,3.99E+02,3.99E+02
4.04E+02,4.04E+02,4.04E+02,4.04E+02,4.03E+02,4.03E+02,4.03E+02,4.03E+02,4.03E+02,4.03E+02,4.03E+02,4.02E+02,4.02E+02,4.02E+02,4.02E+02,4.02E+02,4.02E+02,4.01E+02,4.01E+02,4.01E+02,4.01E+02,4.01E+02,4.01E+02,4.01E+02,4.01E+02,4.01E+02,4.01E+02,4.01E+02,4.01E+02,4.01E+02,4.01E+02,4.01E+02,4.01E+02,4.01E+02,4.01E+02,4.01E+02,4.01E+02,4.01E+02,4.01E+02,4.01E+02,4.01E+02,4.01E+02,4.01E+02,4.01E+02,4.01E+02,4.01E+02,4.01E+02,4.01E+02,4.01E+02,4.01E+02,4.01E+02,4.01E+02,4.01E+02,4.01E+02,4.01E+02,4.01E+02,4.02E+02,4.02E+02,4.02E+02,4.02E+02,4.02E+02,4.02E+02,4.02E+02,4.01E+02,4.01E+02,4.01E+02,4.01E+02,4.01E+02,4.01E+02,4.01E+02,4.00E+02,4.00E+02,4.00E+02,3.99E+02,3.99E+02,3.99E+02,3.99E+02,3.99E+02,3.99E+02,3.99E+02,3.99E+02,3.99E+02,3.99E+02,3.99E+02,3.99E+02,3.99E+02,3.99E+02,3.99E+02,4.00E+02,4.00E+02,4.00E+02,4.00E+02,4.00E+02,4.00E+02,4.00E+02,4.00E+02,4.00E+02,4.00E+02,4.00E+02,4.00E+02,4.00E+02,4.00E+02,4.00E+02,4.01E+02,4.01E+02,4.01E+02,4.01E+02,4.01E+02,4.01E+02,4.01E+02,4.01E+02,4.01E+02,4.01E+02,4.01E+02,4.00E+02,4.00E+02,4.00E+02,4.00E+02,4.00E+02,4.00E+02,4.00E+02,4.00E+02,4.00E+02,4.00E+02,4.00E+02,4.00E+02,4.00E+02,4.00E+02,4.01E+02,4.01E+02,4.01E+02,4.01E+02,4.01E+02,4.01E+02,4.01E+02,4.02E+02,4.02E+02,4.02E+02,4.02E+02,4.02E+02,4.02E+02,4.02E+02,4.02E+02,4.02E+02,0.00E+00,0.00E+00,0.00E+00,0.00E+00,0.00E+00,0.00E+00,0.00E+00,0.00E+00,0.00E+00,0.00E+00,0.00E+00,0.00E+00,0.00E+00,0.00E+00,0.00E+00,0.00E+00,3.40E+02,3.40E+02,3.39E+02,3.39E+02,3.39E+02,3.38E+02,3.38E+02,3.38E+02,3.37E+02,3.37E+02,3.37E+02,0.00E+00,0.00E+00,3.34E+02,3.34E+02,3.33E+02,3.33E+02,3.32E+02,3.31E+02,3.31E+02,3.30E+02,3.30E+02,3.30E+02,3.29E+02,3.29E+02,3.29E+02,3.28E+02,3.28E+02,3.27E+02,3.27E+02,3.27E+02,3.27E+02,3.27E+02,3.26E+02,3.26E+02,3.25E+02,3.25E+02,3.25E+02,3.25E+02,3.25E+02,3.24E+02,3.24E+02,3.24E+02,3.24E+02,3.24E+02,3.24E+02,3.24E+02,3.25E+02,3.25E+02,3.25E+02,3.25E+02,3.25E+02,3.25E+02,3.25E+02,3.25E+02,3.25E+02,3.25E+02,3.25E+02,3.25E+02,3.25E+02,3.25E+02,3.25E+02,3.25E+02,3.24E+02,3.24E+02,3.24E+02,3.24E+02,3.24E+02,3.25E+02,3.25E+02,3.25E+02,3.25E+02,3.26E+02,3.26E+02,3.26E+02,3.26E+02,3.26E+02,3.27E+02,3.27E+02,3.27E+02,3.28E+02,3.28E+02,3.29E+02,3.30E+02,3.30E+02,3.30E+02,3.31E+02,3.31E+02,3.32E+02,3.33E+02,3.33E+02,3.34E+02,3.35E+02,3.35E+02,3.36E+02,3.37E+02,3.37E+02,3.37E+02,3.39E+02,3.39E+02,3.40E+02,3.41E+02,3.41E+02,3.44E+02,3.44E+02,3.44E+02,0.00E+00,0.00E+00,3.96E+02,3.96E+02,3.97E+02,3.97E+02,3.97E+02,3.98E+02,3.98E+02,3.98E+02,3.98E+02,3.98E+02,3.99E+02,3.99E+02,3.99E+02,3.99E+02,3.99E+02,3.99E+02,3.99E+02,3.99E+02,4.00E+02,4.00E+02,4.00E+02,4.00E+02,4.00E+02,4.00E+02,4.00E+02,4.00E+02,4.00E+02,3.99E+02,3.99E+02,3.99E+02,3.99E+02,3.99E+02,3.99E+02,3.99E+02,3.99E+02,3.99E+02,3.99E+02,3.99E+02,3.99E+02,3.99E+02,3.99E+02,3.99E+02,3.99E+02,3.99E+02,3.99E+02,3.99E+02,3.99E+02,3.99E+02,3.99E+02,3.99E+02,3.99E+02,3.99E+02,3.99E+02,3.99E+02,3.99E+02,3.99E+02,3.99E+02,3.99E+02,3.99E+02,3.99E+02,3.99E+02,3.99E+02,3.99E+02
4.04E+02,4.04E+02,4.04E+02,4.04E+02,4.03E+02,4.03E+02,4.03E+02,4.03E+02,4.03E+02,4.03E+02,4.03E+02,4.03E+02,4.02E+02,4.02E+02,4.02E+02,4.02E+02,4.02E+02,4.01E+02,4.01E+02,4.01E+02,4.01E+02,4.01E+02,4.01E+02,4.01E+02,4.01E+02,4.01E+02,4.01E+02,4.01E+02,4.01E+02,4.01E+02,4.01E+02,4.01E+02,4.01E+02,4.01E+02,4.01E+02,4.01E+02,4.01E+02,4.01E+02,4.01E+02,4.01E+02,4.01E+02,4.01E+02,4.01E+02,4.01E+02,4.01E+02,4.01E+02,4.01E+02,4.01E+02,4.01E+02,4.01E+02,4.01E+02,4.01E+02,4.01E+02,4.02E+02,4.02E+02,4.02E+02,4.02E+02,4.02E+02,4.02E+02,4.02E+02,4.02E+02,4.02E+02,4.02E+02,4.01E+02,4.01E+02,4.01E+02,4.01E+02,4.01E+02,4.01E+02,4.01E+02,4.00E+02,4.00E+02,4.00E+02,3.99E+02,3.99E+02,3.99E+02,3.99E+02,3.99E+02,3.99E+02,3.99E+02,3.99E+02,3.99E+02,3.99E+02,3.99E+02,3.99E+02,3.99E+02,3.99E+02,3.99E+02,4.00E+02,4.00E+02,4.00E+02,4.00E+02,4.00E+02,4.00E+02,4.00E+02,4.00E+02,4.00E+02,4.00E+02,4.00E+02,4.00E+02,4.00E+02,4.00E+02,4.00E+02,4.00E+02,4.01E+02,4.01E+02,4.01E+02,4.01E+02,4.01E+02,4.01E+02,4.00E+02,4.00E+02,4.00E+02,4.00E+02,4.00E+02,4.00E+02,4.00E+02,4.00E+02,4.00E+02,4.00E+02,4.00E+02,4.00E+02,4.00E+02,4.00E+02,4.00E+02,4.00E+02,4.00E+02,4.01E+02,4.01E+02,4.01E+02,4.01E+02,4.01E+02,4.01E+02,4.02E+02,4.02E+02,4.02E+02,4.02E+02,4.02E+02,4.02E+02,4.02E+02,4.02E+02,4.02E+02,4.02E+02,4.02E+02,0.00E+00,0.00E+00,0.00E+00,0.00E+00,0.00E+00,0.00E+00,0.00E+00,0.00E+00,0.00E+00,0.00E+00,0.00E+00,0.00E+00,0.00E+00,0.00E+00,0.00E+00,0.00E+00,3.40E+02,3.40E+02,3.39E+02,3.39E+02,3.39E+02,3.38E+02,3.38E+02,3.38E+02,3.37E+02,3.37E+02,3.37E+02,0.00E+00,0.00E+00,3.34E+02,3.34E+02,3.33E+02,3.33E+02,3.32E+02,3.31E+02,3.31E+02,3.30E+02,3.30E+02,3.30E+02,3.29E+02,3.29E+02,3.29E+02,3.28E+02,3.28E+02,3.27E+02,3.27E+02,3.27E+02,3.27E+02,3.27E+02,3.26E+02,3.26E+02,3.26E+02,3.26E+02,3.26E+02,3.25E+02,3.25E+02,3.25E+02,3.25E+02,3.25E+02,3.25E+02,3.25E+02,3.25E+02,3.25E+02,3.25E+02,3.25E+02,3.25E+02,3.25E+02,3.25E+02,3.26E+02,3.26E+02,3.25E+02,3.25E+02,3.25E+02,3.25E+02,3.25E+02,3.25E+02,3.25E+02,3.25E+02,3.25E+02,3.25E+02,3.25E+02,3.25E+02,3.25E+02,3.25E+02,3.25E+02,3.25E+02,3.25E+02,3.26E+02,3.26E+02,3.26E+02,3.26E+02,3.27E+02,3.27E+02,3.27E+02,3.28E+02,3.28E+02,3.29E+02,3.29E+02,3.29E+02,3.30E+02,3.30E+02,3.31E+02,3.32E+02,3.32E+02,3.32E+02,3.33E+02,3.33E+02,3.35E+02,3.36E+02,3.36E+02,3.37E+02,3.37E+02,3.37E+02,3.37E+02,3.39E+02,3.39E+02,3.40E+02,3.41E+02,3.41E+02,3.44E+02,3.44E+02,3.44E+02,3.96E+02,3.96E+02,3.96E+02,3.96E+02,3.97E+02,3.97E+02,3.97E+02,3.97E+02,3.97E+02,3.98E+02,3.98E+02,3.98E+02,3.99E+02,3.99E+02,3.99E+02,3.99E+02,3.99E+02,3.99E+02,3.99E+02,3.99E+02,4.00E+02,4.00E+02,4.00E+02,4.00E+02,4.00E+02,4.00E+02,4.00E+02,3.99E+02,3.99E+02,3.99E+02,3.99E+02,3.99E+02,3.99E+02,3.99E+02,3.99E+02,3.99E+02,3.99E+02,3.99E+02,3.99E+02,3.99E+02,3.98E+02,3.98E+02,3.98E+02,3.98E+02,3.98E+02,3.98E+02,3.98E+02,3.99E+02,3.98E+02,3.98E+02,3.99E+02,3.99E+02,3.99E+02,3.99E+02,3.99E+02,3.99E+02,3.99E+02,3.99E+02,3.99E+02,3.99E+02,3.99E+02,3.99E+02,3.99E+02,3.99E+02,3.99E+02
4.04E+02,4.04E+02,4.04E+02,4.04E+02,4.03E+02,4.03E+02,4.03E+02,4.03E+02,4.03E+02,4.03E+02,4.03E+02,4.03E+02,4.02E+02,4.02E+02,4.02E+02,4.02E+02,4.02E+02,4.02E+02,4.02E+02,4.01E+02,4.01E+02,4.01E+02,4.01E+02,4.01E+02,4.01E+02,4.01E+02,4.01E+02,4.01E+02,4.01E+02,4.01E+02,4.01E+02,4.01E+02,4.01E+02,4.01E+02,4.01E+02,4.01E+02,4.01E+02,4.01E+02,4.01E+02,4.01E+02,4.01E+02,4.01E+02,4.01E+02,4.01E+02,4.01E+02,4.01E+02,4.01E+02,4.01E+02,4.01E+02,4.01E+02,4.01E+02,4.01E+02,4.01E+02,4.02E+02,4.02E+02,4.02E+02,4.02E+02,4.02E+02,4.02E+02,4.02E+02,4.02E+02,4.02E+02,4.02E+02,4.01E+02,4.01E+02,4.01E+02,4.01E+02,4.01E+02,4.00E+02,4.00E+02,4.00E+02,4.00E+02,4.00E+02,3.99E+02,3.99E+02,3.99E+02,3.99E+02,3.99E+02,3.99E+02,3.99E+02,3.99E+02,3.99E+02,3.99E+02,3.99E+02,3.99E+02,3.99E+02,3.99E+02,3.99E+02,3.99E+02,3.99E+02,4.00E+02,4.00E+02,4.00E+02,4.00E+02,4.00E+02,4.00E+02,4.00E+02,4.00E+02,4.00E+02,4.00E+02,4.00E+02,4.00E+02,4.00E+02,4.00E+02,4.01E+02,4.01E+02,4.01E+02,4.01E+02,4.01E+02,4.01E+02,4.00E+02,4.00E+02,4.00E+02,4.00E+02,4.00E+02,4.00E+02,4.00E+02,4.00E+02,4.00E+02,4.00E+02,4.00E+02,4.00E+02,4.00E+02,4.00E+02,4.00E+02,4.00E+02,4.00E+02,4.01E+02,4.01E+02,4.01E+02,4.01E+02,4.01E+02,4.01E+02,4.01E+02,4.01E+02,4.01E+02,4.02E+02,4.02E+02,4.02E+02,4.02E+02,4.02E+02,4.02E+02,4.02E+02,4.02E+02,4.02E+02,4.02E+02,0.00E+00,0.00E+00,0.00E+00,0.00E+00,0.00E+00,0.00E+00,0.00E+00,0.00E+00,0.00E+00,0.00E+00,0.00E+00,0.00E+00,0.00E+00,0.00E+00,0.00E+00,0.00E+00,0.00E+00,0.00E+00,0.00E+00,3.39E+02,3.38E+02,3.38E+02,3.38E+02,3.38E+02,3.38E+02,0.00E+00,0.00E+00,0.00E+00,0.00E+00,3.34E+02,3.33E+02,3.33E+02,3.32E+02,3.32E+02,3.31E+02,3.30E+02,3.30E+02,3.30E+02,3.30E+02,3.29E+02,3.29E+02,3.29E+02,3.28E+02,3.28E+02,3.28E+02,3.27E+02,3.27E+02,3.27E+02,3.27E+02,3.27E+02,3.26E+02,3.26E+02,3.26E+02,3.26E+02,3.26E+02,3.26E+02,3.26E+02,3.26E+02,3.26E+02,3.26E+02,3.26E+02,3.26E+02,3.26E+02,3.26E+02,3.26E+02,3.26E+02,3.26E+02,3.26E+02,3.26E+02,3.26E+02,3.26E+02,3.26E+02,3.26E+02,3.26E+02,3.25E+02,3.25E+02,3.25E+02,3.25E+02,3.25E+02,3.25E+02,3.25E+02,3.25E+02,3.25E+02,3.25E+02,3.25E+02,3.26E+02,3.26E+02,3.26E+02,3.26E+02,3.27E+02,3.27E+02,3.27E+02,3.28E+02,3.28E+02,3.29E+02,3.29E+02,3.29E+02,3.30E+02,3.30E+02,3.31E+02,3.32E+02,3.32E+02,3.32E+02,3.33E+02,3.33E+02,3.35E+02,3.36E+02,3.36E+02,3.37E+02,3.38E+02,3.38E+02,3.39E+02,3.40E+02,3.40E+02,3.41E+02,3.43E+02,3.43E+02,3.44E+02,0.00E+00,0.00E+00,3.96E+02,3.96E+02,3.96E+02,3.96E+02,3.97E+02,3.97E+02,3.97E+02,3.97E+02,3.97E+02,3.98E+02,3.98E+02,3.98E+02,3.99E+02,3.99E+02,3.99E+02,3.99E+02,3.99E+02,4.00E+02,4.00E+02,4.00E+02,4.00E+02,4.00E+02,4.00E+02,4.00E+02,4.00E+02,4.00E+02,4.00E+02,3.99E+02,3.99E+02,3.99E+02,3.99E+02,3.99E+02,3.99E+02,3.99E+02,3.99E+02,3.99E+02,3.99E+02,3.99E+02,3.99E+02,3.99E+02,3.98E+02,3.98E+02,3.98E+02,3.98E+02,3.98E+02,3.98E+02,3.98E+02,3.99E+02,3.98E+02,3.98E+02,3.99E+02,3.98E+02,3.98E+02,3.98E+02,3.98E+02,3.99E+02,3.99E+02,3.99E+02,3.99E+02,3.99E+02,3.99E+02,3.99E+02,3.99E+02,3.99E+02,3.99E+02
4.04E+02,4.04E+02,4.04E+02,4.04E+02,4.03E+02,4.03E+02,4.03E+02,4.03E+02,4.03E+02,4.03E+02,4.03E+02,4.03E+02,4.02E+02,4.02E+02,4.02E+02,4.02E+02,4.02E+02,4.02E+02,4.02E+02,4.01E+02,4.01E+02,4.01E+02,4.01E+02,4.01E+02,4.01E+02,4.01E+02,4.01E+02,4.01E+02,4.01E+02,4.01E+02,4.01E+02,4.01E+02,4.01E+02,4.01E+02,4.01E+02,4.01E+02,4.01E+02,4.01E+02,4.01E+02,4.01E+02,4.01E+02,4.01E+02,4.01E+02,4.01E+02,4.01E+02,4.01E+02,4.01E+02,4.02E+02,4.02E+02,4.02E+02,4.02E+02,4.02E+02,4.02E+02,4.02E+02,4.02E+02,4.02E+02,4.02E+02,4.02E+02,4.02E+02,4.02E+02,4.02E+02,4.02E+02,4.02E+02,4.01E+02,4.01E+02,4.01E+02,4.01E+02,4.01E+02,4.00E+02,4.00E+02,4.00E+02,4.00E+02,4.00E+02,3.99E+02,3.99E+02,3.99E+02,3.99E+02,3.99E+02,3.99E+02,3.99E+02,3.99E+02,3.99E+02,3.99E+02,3.99E+02,3.99E+02,3.99E+02,3.99E+02,3.99E+02,3.99E+02,3.99E+02,4.00E+02,4.00E+02,4.00E+02,4.00E+02,4.00E+02,4.00E+02,4.00E+02,4.00E+02,4.00E+02,4.00E+02,4.00E+02,4.00E+02,4.00E+02,4.00E+02,4.01E+02,4.00E+02,4.00E+02,4.00E+02,4.00E+02,4.00E+02,4.00E+02,4.00E+02,4.00E+02,4.00E+02,4.00E+02,4.00E+02,4.00E+02,4.00E+02,4.00E+02,4.00E+02,4.00E+02,4.00E+02,4.00E+02,4.00E+02,4.00E+02,4.00E+02,4.00E+02,4.01E+02,4.01E+02,4.01E+02,4.01E+02,4.01E+02,4.01E+02,4.01E+02,4.01E+02,4.01E+02,4.01E+02,4.01E+02,4.01E+02,4.01E+02,4.01E+02,4.02E+02,4.02E+02,4.02E+02,4.02E+02,4.02E+02,0.00E+00,0.00E+00,0.00E+00,0.00E+00,0.00E+00,0.00E+00,0.00E+00,0.00E+00,0.00E+00,0.00E+00,0.00E+00,0.00E+00,0.00E+00,0.00E+00,0.00E+00,0.00E+00,0.00E+00,0.00E+00,0.00E+00,3.39E+02,3.39E+02,3.39E+02,3.38E+02,3.38E+02,3.38E+02,0.00E+00,0.00E+00,0.00E+00,0.00E+00,0.00E+00,3.33E+02,3.33E+02,3.33E+02,3.33E+02,3.32E+02,3.31E+02,3.31E+02,3.30E+02,3.30E+02,3.29E+02,3.29E+02,3.29E+02,3.28E+02,3.28E+02,3.28E+02,3.27E+02,3.27E+02,3.27E+02,3.27E+02,3.27E+02,3.26E+02,3.26E+02,3.26E+02,3.26E+02,3.26E+02,3.26E+02,3.26E+02,3.26E+02,3.26E+02,3.26E+02,3.26E+02,3.26E+02,3.26E+02,3.26E+02,3.26E+02,3.26E+02,3.26E+02,3.26E+02,3.26E+02,3.26E+02,3.26E+02,3.26E+02,3.26E+02,3.26E+02,3.26E+02,3.26E+02,3.26E+02,3.25E+02,3.25E+02,3.25E+02,3.25E+02,3.25E+02,3.25E+02,3.26E+02,3.26E+02,3.26E+02,3.26E+02,3.26E+02,3.27E+02,3.27E+02,3.27E+02,3.28E+02,3.28E+02,3.28E+02,3.29E+02,3.30E+02,3.30E+02,3.31E+02,3.32E+02,3.32E+02,3.32E+02,3.32E+02,3.33E+02,3.34E+02,3.34E+02,3.35E+02,3.36E+02,3.36E+02,3.37E+02,3.39E+02,3.39E+02,3.40E+02,3.41E+02,3.41E+02,3.42E+02,0.00E+00,0.00E+00,0.00E+00,0.00E+00,0.00E+00,3.97E+02,3.97E+02,3.96E+02,3.96E+02,3.97E+02,3.97E+02,3.97E+02,3.97E+02,3.97E+02,3.98E+02,3.98E+02,3.98E+02,3.99E+02,3.99E+02,3.99E+02,3.99E+02,3.99E+02,4.00E+02,4.00E+02,4.00E+02,4.00E+02,4.00E+02,4.00E+02,4.00E+02,4.00E+02,4.00E+02,4.00E+02,3.99E+02,3.99E+02,3.99E+02,3.99E+02,3.99E+02,3.99E+02,3.99E+02,3.99E+02,3.99E+02,3.99E+02,3.98E+02,3.98E+02,3.98E+02,3.98E+02,3.98E+02,3.98E+02,3.98E+02,3.98E+02,3.98E+02,3.98E+02,3.98E+02,3.98E+02,3.98E+02,3.98E+02,3.98E+02,3.98E+02,3.98E+02,3.98E+02,3.98E+02,3.98E+02,3.99E+02,3.99E+02,3.99E+02,3.99E+02,3.99E+02,3.99E+02,3.99E+02,3.99E+02
4.04E+02,4.04E+02,4.03E+02,4.03E+02,4.03E+02,4.03E+02,4.03E+02,4.03E+02,4.03E+02,4.03E+02,4.03E+02,4.02E+02,4.02E+02,4.02E+02,4.02E+02,4.02E+02,4.02E+02,4.02E+02,4.02E+02,4.02E+02,4.01E+02,4.01E+02,4.01E+02,4.01E+02,4.01E+02,4.01E+02,4.01E+02,4.01E+02,4.01E+02,4.01E+02,4.01E+02,4.01E+02,4.01E+02,4.01E+02,4.01E+02,4.01E+02,4.01E+02,4.01E+02,4.01E+02,4.01E+02,4.01E+02,4.01E+02,4.01E+02,4.01E+02,4.01E+02,4.02E+02,4.02E+02,4.02E+02,4.02E+02,4.02E+02,4.02E+02,4.02E+02,4.02E+02,4.02E+02,4.02E+02,4.02E+02,4.02E+02,4.02E+02,4.02E+02,4.02E+02,4.02E+02,4.02E+02,4.01E+02,4.01E+02,4.01E+02,4.01E+02,4.01E+02,4.01E+02,4.00E+02,4.00E+02,4.00E+02,4.00E+02,4.00E+02,3.99E+02,3.99E+02,3.99E+02,3.99E+02,3.99E+02,3.99E+02,3.99E+02,3.99E+02,3.99E+02,3.99E+02,3.99E+02,3.99E+02,3.99E+02,3.99E+02,3.99E+02,3.99E+02,3.99E+02,3.99E+02,4.00E+02,4.00E+02,4.00E+02,4.00E+02,4.00E+02,4.00E+02,4.00E+02,4.00E+02,4.00E+02,4.00E+02,4.00E+02,4.00E+02,4.00E+02,4.01E+02,4.00E+02,4.00E+02,4.00E+02,4.00E+02,4.00E+02,4.00E+02,4.00E+02,4.00E+02,4.00E+02,4.00E+02,4.00E+02,4.00E+02,4.00E+02,4.00E+02,4.00E+02,4.00E+02,4.00E+02,4.00E+02,4.00E+02,4.00E+02,4.00E+02,4.00E+02,4.01E+02,4.01E+02,4.01E+02,4.01E+02,4.01E+02,4.01E+02,4.01E+02,4.01E+02,4.01E+02,4.01E+02,4.01E+02,4.01E+02,4.01E+02,4.01E+02,4.02E+02,4.02E+02,4.02E+02,0.00E+00,0.00E+00,0.00E+00,0.00E+00,0.00E+00,0.00E+00,0.00E+00,0.00E+00,0.00E+00,0.00E+00,0.00E+00,0.00E+00,0.00E+00,0.00E+00,0.00E+00,0.00E+00,0.00E+00,0.00E+00,0.00E+00,3.40E+02,3.40E+02,3.39E+02,3.39E+02,3.39E+02,3.38E+02,3.38E+02,3.38E+02,3.37E+02,3.37E+02,3.36E+02,3.36E+02,3.35E+02,3.33E+02,3.33E+02,3.33E+02,3.33E+02,3.32E+02,3.31E+02,3.31E+02,3.31E+02,3.31E+02,3.30E+02,3.29E+02,3.29E+02,3.29E+02,3.29E+02,3.28E+02,3.28E+02,3.28E+02,3.28E+02,3.27E+02,3.27E+02,3.27E+02,3.27E+02,3.27E+02,3.27E+02,3.27E+02,3.27E+02,3.27E+02,3.27E+02,3.26E+02,3.26E+02,3.26E+02,3.26E+02,3.27E+02,3.26E+02,3.26E+02,3.26E+02,3.26E+02,3.26E+02,3.26E+02,3.26E+02,3.26E+02,3.26E+02,3.26E+02,3.26E+02,3.26E+02,3.26E+02,3.26E+02,3.26E+02,3.26E+02,3.26E+02,3.26E+02,3.26E+02,3.26E+02,3.26E+02,3.26E+02,3.27E+02,3.27E+02,3.27E+02,3.28E+02,3.28E+02,3.28E+02,3.29E+02,3.29E+02,3.29E+02,3.30E+02,3.31E+02,3.31E+02,3.32E+02,3.32E+02,3.32E+02,3.32E+02,3.32E+02,3.33E+02,3.34E+02,3.34E+02,3.35E+02,3.36E+02,3.36E+02,3.37E+02,3.39E+02,3.39E+02,3.40E+02,3.41E+02,3.41E+02,3.42E+02,3.43E+02,3.43E+02,3.44E+02,3.97E+02,3.97E+02,3.97E+02,3.97E+02,3.96E+02,3.96E+02,3.97E+02,3.97E+02,3.97E+02,3.97E+02,3.97E+02,3.98E+02,3.98E+02,3.98E+02,3.98E+02,3.98E+02,3.99E+02,3.99E+02,3.99E+02,3.99E+02,3.99E+02,3.99E+02,3.99E+02,3.99E+02,4.00E+02,4.00E+02,4.00E+02,3.99E+02,3.99E+02,3.99E+02,3.99E+02,3.99E+02,3.99E+02,3.99E+02,3.99E+02,3.98E+02,3.98E+02,3.98E+02,3.98E+02,3.98E+02,3.98E+02,3.98E+02,3.98E+02,3.98E+02,3.98E+02,3.98E+02,3.98E+02,3.98E+02,3.98E+02,3.98E+02,3.98E+02,3.98E+02,3.98E+02,3.98E+02,3.98E+02,3.98E+02,3.98E+02,3.98E+02,3.98E+02,3.99E+02,3.99E+02,3.99E+02,3.99E+02,3.99E+02,3.99E+02,3.99E+02,3.99E+02
4.04E+02,4.04E+02,4.03E+02,4.03E+02,4.03E+02,4.03E+02,4.03E+02,4.03E+02,4.03E+02,4.03E+02,4.03E+02,4.02E+02,4.02E+02,4.02E+02,4.02E+02,4.02E+02,4.02E+02,4.02E+02,4.02E+02,4.02E+02,4.01E+02,4.01E+02,4.01E+02,4.01E+02,4.01E+02,4.01E+02,4.01E+02,4.01E+02,4.01E+02,4.01E+02,4.01E+02,4.01E+02,4.01E+02,4.01E+02,4.01E+02,4.01E+02,4.01E+02,4.01E+02,4.01E+02,4.01E+02,4.01E+02,4.01E+02,4.01E+02,4.01E+02,4.01E+02,4.02E+02,4.02E+02,4.02E+02,4.02E+02,4.02E+02,4.02E+02,4.02E+02,4.02E+02,4.02E+02,4.02E+02,4.02E+02,4.02E+02,4.02E+02,4.02E+02,4.02E+02,4.01E+02,4.01E+02,4.01E+02,4.01E+02,4.01E+02,4.01E+02,4.00E+02,4.00E+02,4.00E+02,4.00E+02,4.00E+02,3.99E+02,3.99E+02,3.99E+02,3.99E+02,3.99E+02,3.99E+02,3.99E+02,3.99E+02,3.99E+02,3.99E+02,3.99E+02,3.99E+02,3.99E+02,3.99E+02,3.99E+02,3.99E+02,3.99E+02,3.99E+02,3.99E+02,3.99E+02,4.00E+02,4.00E+02,4.00E+02,4.00E+02,4.00E+02,4.00E+02,4.00E+02,4.00E+02,4.00E+02,4.00E+02,4.00E+02,4.00E+02,4.01E+02,4.01E+02,4.01E+02,4.00E+02,4.00E+02,4.00E+02,4.00E+02,4.00E+02,4.00E+02,4.00E+02,4.00E+02,3.99E+02,3.99E+02,3.99E+02,3.99E+02,3.99E+02,3.99E+02,4.00E+02,4.00E+02,4.00E+02,4.00E+02,4.00E+02,4.00E+02,4.00E+02,4.00E+02,4.01E+02,4.01E+02,4.01E+02,4.01E+02,4.01E+02,4.01E+02,4.01E+02,4.01E+02,4.01E+02,4.01E+02,4.01E+02,4.01E+02,4.01E+02,4.01E+02,4.01E+02,4.01E+02,4.01E+02,4.01E+02,0.00E+00,0.00E+00,0.00E+00,0.00E+00,0.00E+00,0.00E+00,0.00E+00,0.00E+00,0.00E+00,0.00E+00,0.00E+00,0.00E+00,0.00E+00,0.00E+00,0.00E+00,0.00E+00,0.00E+00,3.40E+02,3.40E+02,3.40E+02,3.40E+02,3.40E+02,3.39E+02,3.39E+02,3.38E+02,3.37E+02,3.37E+02,3.36E+02,3.36E+02,3.35E+02,3.34E+02,3.34E+02,3.33E+02,3.33E+02,3.33E+02,3.32E+02,3.32E+02,3.31E+02,3.31E+02,3.31E+02,3.30E+02,3.30E+02,3.29E+02,3.29E+02,3.29E+02,3.29E+02,3.29E+02,3.28E+02,3.28E+02,3.28E+02,3.28E+02,3.28E+02,3.28E+02,3.28E+02,3.28E+02,3.27E+02,3.27E+02,3.27E+02,3.27E+02,3.27E+02,3.27E+02,3.27E+02,3.27E+02,3.26E+02,3.26E+02,3.26E+02,3.26E+02,3.26E+02,3.26E+02,3.26E+02,3.26E+02,3.26E+02,3.26E+02,3.26E+02,3.26E+02,3.26E+02,3.26E+02,3.26E+02,3.26E+02,3.26E+02,3.26E+02,3.26E+02,3.26E+02,3.26E+02,3.26E+02,3.27E+02,3.27E+02,3.27E+02,3.28E+02,3.28E+02,3.28E+02,3.29E+02,3.29E+02,3.29E+02,3.30E+02,3.31E+02,3.31E+02,3.32E+02,3.32E+02,3.32E+02,3.33E+02,3.34E+02,3.34E+02,3.35E+02,3.36E+02,3.36E+02,3.37E+02,3.37E+02,3.38E+02,3.39E+02,3.39E+02,3.40E+02,3.42E+02,3.43E+02,3.43E+02,3.43E+02,3.43E+02,3.44E+02,3.97E+02,3.97E+02,3.97E+02,3.97E+02,3.97E+02,3.97E+02,3.97E+02,3.97E+02,3.97E+02,3.97E+02,3.97E+02,3.98E+02,3.98E+02,3.98E+02,3.98E+02,3.98E+02,3.99E+02,3.99E+02,3.99E+02,3.99E+02,3.99E+02,3.99E+02,3.99E+02,3.99E+02,4.00E+02,4.00E+02,4.00E+02,3.99E+02,3.99E+02,3.99E+02,3.99E+02,3.99E+02,3.99E+02,3.99E+02,3.99E+02,3.98E+02,3.98E+02,3.98E+02,3.98E+02,3.98E+02,3.98E+02,3.98E+02,3.98E+02,3.98E+02,3.98E+02,3.98E+02,3.98E+02,3.98E+02,3.98E+02,3.98E+02,3.98E+02,3.98E+02,3.98E+02,3.98E+02,3.98E+02,3.98E+02,3.98E+02,3.98E+02,3.98E+02,3.98E+02,3.99E+02,3.99E+02,3.99E+02,3.99E+02,3.99E+02,3.99E+02,3.99E+02
4.04E+02,4.03E+02,4.03E+02,4.03E+02,4.03E+02,4.03E+02,4.03E+02,4.03E+02,4.03E+02,4.02E+02,4.02E+02,4.02E+02,4.02E+02,4.02E+02,4.02E+02,4.02E+02,4.02E+02,4.02E+02,4.02E+02,4.02E+02,4.01E+02,4.01E+02,4.01E+02,4.01E+02,4.01E+02,4.01E+02,4.01E+02,4.01E+02,4.01E+02,4.01E+02,4.01E+02,4.01E+02,4.01E+02,4.01E+02,4.01E+02,4.01E+02,4.01E+02,4.01E+02,4.01E+02,4.01E+02,4.01E+02,4.01E+02,4.01E+02,4.01E+02,4.01E+02,4.02E+02,4.02E+02,4.02E+02,4.02E+02,4.02E+02,4.02E+02,4.02E+02,4.02E+02,4.02E+02,4.02E+02,4.02E+02,4.02E+02,4.02E+02,4.02E+02,4.02E+02,4.01E+02,4.01E+02,4.01E+02,4.01E+02,4.01E+02,4.01E+02,4.00E+02,4.00E+02,4.00E+02,4.00E+02,4.00E+02,3.99E+02,3.99E+02,3.99E+02,3.99E+02,3.99E+02,3.99E+02,3.99E+02,3.99E+02,3.99E+02,3.99E+02,3.99E+02,3.99E+02,3.99E+02,3.99E+02,3.99E+02,3.99E+02,3.99E+02,3.99E+02,3.99E+02,3.99E+02,4.00E+02,4.00E+02,4.00E+02,4.00E+02,4.00E+02,4.00E+02,4.00E+02,4.00E+02,4.00E+02,4.00E+02,4.00E+02,4.00E+02,4.01E+02,4.01E+02,4.01E+02,4.00E+02,4.00E+02,4.00E+02,4.00E+02,4.00E+02,4.00E+02,4.00E+02,4.00E+02,3.99E+02,3.99E+02,3.99E+02,3.99E+02,3.99E+02,3.99E+02,4.00E+02,4.00E+02,4.00E+02,4.00E+02,4.00E+02,4.00E+02,4.00E+02,4.00E+02,4.00E+02,4.00E+02,4.01E+02,4.01E+02,4.01E+02,4.01E+02,4.01E+02,4.01E+02,4.01E+02,4.01E+02,4.01E+02,4.01E+02,4.01E+02,4.01E+02,4.01E+02,4.01E+02,4.01E+02,4.01E+02,0.00E+00,0.00E+00,0.00E+00,0.00E+00,0.00E+00,0.00E+00,0.00E+00,0.00E+00,0.00E+00,0.00E+00,0.00E+00,0.00E+00,0.00E+00,0.00E+00,0.00E+00,0.00E+00,0.00E+00,0.00E+00,0.00E+00,3.40E+02,3.40E+02,3.40E+02,3.40E+02,3.39E+02,3.39E+02,3.38E+02,3.38E+02,3.36E+02,3.36E+02,3.35E+02,3.34E+02,3.34E+02,3.33E+02,3.33E+02,3.33E+02,3.32E+02,3.32E+02,3.31E+02,3.31E+02,3.31E+02,3.30E+02,3.30E+02,3.29E+02,3.29E+02,3.29E+02,3.29E+02,3.29E+02,3.28E+02,3.28E+02,3.28E+02,3.28E+02,3.28E+02,3.28E+02,3.28E+02,3.28E+02,3.27E+02,3.27E+02,3.27E+02,3.27E+02,3.27E+02,3.27E+02,3.27E+02,3.27E+02,3.27E+02,3.27E+02,3.27E+02,3.27E+02,3.27E+02,3.27E+02,3.27E+02,3.27E+02,3.27E+02,3.27E+02,3.27E+02,3.26E+02,3.26E+02,3.26E+02,3.26E+02,3.27E+02,3.27E+02,3.27E+02,3.27E+02,3.27E+02,3.27E+02,3.28E+02,3.28E+02,3.28E+02,3.28E+02,3.28E+02,3.29E+02,3.29E+02,3.30E+02,3.30E+02,3.30E+02,3.31E+02,3.32E+02,3.32E+02,3.33E+02,3.33E+02,3.33E+02,3.34E+02,3.35E+02,3.35E+02,3.36E+02,3.37E+02,3.37E+02,3.38E+02,3.39E+02,3.39E+02,3.40E+02,3.41E+02,3.41E+02,3.43E+02,3.44E+02,3.44E+02,3.44E+02,3.45E+02,3.45E+02,3.97E+02,3.97E+02,3.97E+02,3.97E+02,3.97E+02,3.97E+02,3.97E+02,3.97E+02,3.97E+02,3.97E+02,3.97E+02,3.98E+02,3.98E+02,3.98E+02,3.98E+02,3.98E+02,3.99E+02,3.99E+02,3.99E+02,3.99E+02,3.99E+02,3.99E+02,3.99E+02,3.99E+02,3.99E+02,3.99E+02,3.99E+02,3.99E+02,3.99E+02,3.99E+02,3.99E+02,3.99E+02,3.99E+02,3.99E+02,3.98E+02,3.98E+02,3.98E+02,3.98E+02,3.98E+02,3.98E+02,3.98E+02,3.98E+02,3.98E+02,3.98E+02,3.98E+02,3.98E+02,3.98E+02,3.98E+02,3.98E+02,3.98E+02,3.98E+02,3.98E+02,3.98E+02,3.98E+02,3.98E+02,3.98E+02,3.98E+02,3.98E+02,3.98E+02,3.98E+02,3.98E+02,3.98E+02,3.98E+02,3.98E+02,3.98E+02,3.98E+02,3.98E+02
4.04E+02,4.03E+02,4.03E+02,4.03E+02,4.03E+02,4.03E+02,4.03E+02,4.03E+02,4.03E+02,4.02E+02,4.02E+02,4.02E+02,4.02E+02,4.02E+02,4.02E+02,4.02E+02,4.02E+02,4.02E+02,4.02E+02,4.02E+02,4.02E+02,4.02E+02,4.01E+02,4.01E+02,4.01E+02,4.01E+02,4.01E+02,4.01E+02,4.01E+02,4.01E+02,4.01E+02,4.01E+02,4.01E+02,4.01E+02,4.01E+02,4.01E+02,4.01E+02,4.01E+02,4.01E+02,4.01E+02,4.01E+02,4.01E+02,4.01E+02,4.01E+02,4.01E+02,4.02E+02,4.02E+02,4.02E+02,4.02E+02,4.02E+02,4.02E+02,4.02E+02,4.01E+02,4.01E+02,4.01E+02,4.01E+02,4.01E+02,4.01E+02,4.01E+02,4.01E+02,4.01E+02,4.01E+02,4.01E+02,4.01E+02,4.01E+02,4.00E+02,4.00E+02,4.00E+02,4.00E+02,4.00E+02,4.00E+02,3.99E+02,3.99E+02,3.99E+02,3.99E+02,3.99E+02,3.99E+02,3.99E+02,3.99E+02,3.99E+02,3.99E+02,3.99E+02,3.99E+02,3.99E+02,3.99E+02,4.00E+02,4.00E+02,4.00E+02,4.00E+02,4.00E+02,4.00E+02,4.00E+02,4.00E+02,4.00E+02,4.00E+02,4.00E+02,4.00E+02,4.00E+02,4.00E+02,4.01E+02,4.01E+02,4.01E+02,4.01E+02,4.01E+02,4.01E+02,4.01E+02,4.01E+02,4.01E+02,4.00E+02,4.00E+02,4.00E+02,4.00E+02,4.00E+02,4.00E+02,4.00E+02,4.00E+02,4.00E+02,4.00E+02,4.00E+02,4.00E+02,4.00E+02,4.00E+02,4.00E+02,4.00E+02,4.00E+02,4.00E+02,4.01E+02,4.00E+02,4.00E+02,4.00E+02,4.01E+02,4.01E+02,4.01E+02,4.01E+02,4.01E+02,4.01E+02,4.01E+02,4.01E+02,4.01E+02,4.01E+02,4.01E+02,4.01E+02,4.01E+02,4.01E+02,4.01E+02,4.01E+02,0.00E+00,0.00E+00,0.00E+00,0.00E+00,0.00E+00,0.00E+00,0.00E+00,0.00E+00,0.00E+00,0.00E+00,0.00E+00,0.00E+00,0.00E+00,0.00E+00,0.00E+00,0.00E+00,0.00E+00,0.00E+00,0.00E+00,3.40E+02,3.40E+02,3.40E+02,3.40E+02,3.39E+02,3.39E+02,3.38E+02,3.38E+02,3.37E+02,3.36E+02,3.36E+02,3.35E+02,3.35E+02,3.34E+02,3.34E+02,3.33E+02,3.33E+02,3.33E+02,3.32E+02,3.31E+02,3.31E+02,3.31E+02,0.00E+00,3.30E+02,3.30E+02,3.30E+02,3.29E+02,3.29E+02,3.29E+02,3.29E+02,3.29E+02,3.29E+02,3.28E+02,3.28E+02,3.28E+02,3.28E+02,3.28E+02,3.28E+02,3.28E+02,3.28E+02,3.28E+02,3.28E+02,3.27E+02,3.27E+02,3.27E+02,3.27E+02,3.27E+02,3.27E+02,3.27E+02,3.27E+02,3.27E+02,3.27E+02,3.27E+02,3.27E+02,3.27E+02,3.27E+02,3.27E+02,3.27E+02,3.27E+02,3.27E+02,3.27E+02,3.27E+02,0.00E+00,0.00E+00,0.00E+00,0.00E+00,3.29E+02,3.29E+02,3.28E+02,3.28E+02,3.29E+02,3.29E+02,3.30E+02,3.30E+02,3.30E+02,3.31E+02,3.32E+02,3.32E+02,3.33E+02,3.33E+02,3.33E+02,3.34E+02,3.35E+02,3.35E+02,3.36E+02,3.37E+02,3.37E+02,3.38E+02,3.39E+02,3.39E+02,3.40E+02,3.41E+02,3.41E+02,3.43E+02,3.44E+02,3.44E+02,3.44E+02,3.45E+02,3.45E+02,3.97E+02,3.97E+02,3.97E+02,3.97E+02,3.97E+02,3.97E+02,3.97E+02,3.97E+02,3.97E+02,3.97E+02,3.97E+02,3.98E+02,3.98E+02,3.98E+02,3.98E+02,3.98E+02,3.98E+02,3.99E+02,3.99E+02,3.99E+02,3.99E+02,3.99E+02,3.99E+02,3.99E+02,3.99E+02,3.99E+02,3.99E+02,3.99E+02,3.99E+02,3.99E+02,3.99E+02,3.99E+02,3.99E+02,3.99E+02,3.98E+02,3.98E+02,3.98E+02,3.98E+02,3.98E+02,3.98E+02,3.98E+02,3.98E+02,3.98E+02,3.98E+02,3.98E+02,3.98E+02,3.98E+02,3.98E+02,3.98E+02,3.98E+02,3.98E+02,3.98E+02,3.98E+02,3.98E+02,3.98E+02,3.98E+02,3.98E+02,3.98E+02,3.98E+02,3.98E+02,3.98E+02,3.98E+02,3.98E+02,3.98E+02,3.98E+02,3.98E+02,3.98E+02
4.04E+02,4.03E+02,4.03E+02,4.03E+02,4.03E+02,4.03E+02,4.03E+02,4.02E+02,4.02E+02,4.02E+02,4.02E+02,4.02E+02,4.02E+02,4.02E+02,4.02E+02,4.02E+02,4.02E+02,4.02E+02,4.02E+02,4.02E+02,4.01E+02,4.01E+02,4.01E+02,4.01E+02,4.01E+02,4.01E+02,4.01E+02,4.01E+02,4.01E+02,4.01E+02,4.01E+02,4.01E+02,4.01E+02,4.01E+02,4.01E+02,4.01E+02,4.01E+02,4.01E+02,4.01E+02,4.01E+02,4.01E+02,4.01E+02,4.01E+02,4.01E+02,4.01E+02,4.01E+02,4.01E+02,4.01E+02,4.01E+02,4.01E+02,4.01E+02,4.01E+02,4.01E+02,4.01E+02,4.01E+02,4.01E+02,4.01E+02,4.01E+02,4.01E+02,4.01E+02,4.01E+02,4.01E+02,4.01E+02,4.00E+02,4.00E+02,4.00E+02,4.00E+02,4.00E+02,4.00E+02,4.00E+02,4.00E+02,3.99E+02,3.99E+02,3.99E+02,3.99E+02,3.99E+02,3.99E+02,3.99E+02,3.99E+02,3.99E+02,3.99E+02,3.99E+02,3.99E+02,3.99E+02,3.99E+02,4.00E+02,4.00E+02,4.00E+02,4.00E+02,4.00E+02,4.00E+02,4.00E+02,4.00E+02,4.00E+02,4.00E+02,4.00E+02,4.01E+02,4.01E+02,4.01E+02,4.01E+02,4.01E+02,4.01E+02,4.01E+02,4.01E+02,4.01E+02,4.01E+02,4.01E+02,4.01E+02,4.00E+02,4.00E+02,4.00E+02,4.00E+02,4.00E+02,4.00E+02,4.00E+02,4.00E+02,4.00E+02,4.00E+02,4.00E+02,4.00E+02,4.00E+02,4.00E+02,4.00E+02,4.00E+02,4.00E+02,4.00E+02,4.00E+02,4.00E+02,4.00E+02,4.00E+02,4.01E+02,4.01E+02,4.01E+02,4.01E+02,4.01E+02,4.01E+02,4.01E+02,4.01E+02,4.01E+02,4.01E+02,4.01E+02,4.01E+02,4.01E+02,4.01E+02,4.01E+02,4.01E+02,0.00E+00,0.00E+00,0.00E+00,0.00E+00,0.00E+00,0.00E+00,0.00E+00,0.00E+00,0.00E+00,0.00E+00,0.00E+00,0.00E+00,0.00E+00,0.00E+00,0.00E+00,0.00E+00,0.00E+00,0.00E+00,0.00E+00,0.00E+00,0.00E+00,0.00E+00,3.40E+02,3.39E+02,3.39E+02,3.38E+02,3.38E+02,3.37E+02,3.37E+02,3.37E+02,3.36E+02,3.36E+02,3.35E+02,3.34E+02,3.34E+02,3.34E+02,3.34E+02,3.33E+02,3.33E+02,0.00E+00,0.00E+00,0.00E+00,3.31E+02,3.30E+02,3.30E+02,3.30E+02,3.30E+02,3.30E+02,3.30E+02,3.30E+02,3.29E+02,3.28E+02,3.28E+02,3.28E+02,3.28E+02,3.28E+02,3.28E+02,3.28E+02,3.28E+02,3.28E+02,3.28E+02,3.27E+02,3.27E+02,3.27E+02,3.27E+02,3.27E+02,3.27E+02,3.27E+02,3.27E+02,3.27E+02,3.27E+02,3.27E+02,3.27E+02,3.27E+02,3.27E+02,3.27E+02,3.27E+02,3.27E+02,3.27E+02,3.27E+02,3.27E+02,3.28E+02,3.28E+02,0.00E+00,0.00E+00,3.29E+02,3.29E+02,3.30E+02,3.30E+02,3.30E+02,3.30E+02,3.31E+02,3.31E+02,3.31E+02,3.32E+02,3.33E+02,3.33E+02,3.34E+02,3.34E+02,3.34E+02,3.35E+02,3.36E+02,3.36E+02,3.37E+02,3.38E+02,3.38E+02,3.39E+02,3.40E+02,3.40E+02,3.41E+02,3.42E+02,3.42E+02,3.43E+02,3.44E+02,3.44E+02,3.45E+02,3.45E+02,3.45E+02,3.97E+02,3.97E+02,3.97E+02,3.97E+02,3.97E+02,3.97E+02,3.97E+02,3.97E+02,3.97E+02,3.97E+02,3.97E+02,3.98E+02,3.98E+02,3.98E+02,3.98E+02,3.98E+02,3.98E+02,3.99E+02,3.99E+02,3.99E+02,3.99E+02,3.99E+02,3.99E+02,3.99E+02,3.99E+02,3.99E+02,3.99E+02,3.99E+02,3.99E+02,3.99E+02,3.99E+02,3.98E+02,3.98E+02,3.98E+02,3.98E+02,3.98E+02,3.98E+02,3.98E+02,3.98E+02,3.98E+02,3.98E+02,3.98E+02,3.98E+02,3.98E+02,3.98E+02,3.98E+02,3.98E+02,3.98E+02,3.98E+02,3.98E+02,3.98E+02,3.98E+02,3.98E+02,3.98E+02,3.98E+02,3.98E+02,3.98E+02,3.98E+02,3.98E+02,3.98E+02,3.98E+02,3.98E+02,3.98E+02,3.98E+02,3.98E+02,3.98E+02,3.98E+02
4.03E+02,4.03E+02,4.03E+02,4.03E+02,4.02E+02,4.02E+02,4.02E+02,4.02E+02,4.02E+02,4.02E+02,4.02E+02,4.02E+02,4.02E+02,4.02E+02,4.01E+02,4.01E+02,4.02E+02,4.02E+02,4.02E+02,4.02E+02,4.01E+02,4.01E+02,4.01E+02,4.01E+02,4.01E+02,4.01E+02,4.01E+02,4.01E+02,4.01E+02,4.01E+02,4.01E+02,4.01E+02,4.01E+02,4.01E+02,4.01E+02,4.01E+02,4.01E+02,4.01E+02,4.01E+02,4.01E+02,4.01E+02,4.01E+02,4.01E+02,4.01E+02,4.01E+02,4.01E+02,4.01E+02,4.01E+02,4.01E+02,4.01E+02,4.01E+02,4.01E+02,4.01E+02,4.01E+02,4.01E+02,4.01E+02,4.01E+02,4.01E+02,4.01E+02,4.01E+02,4.01E+02,4.01E+02,4.01E+02,4.00E+02,4.00E+02,4.00E+02,4.00E+02,4.00E+02,4.00E+02,4.00E+02,3.99E+02,3.99E+02,3.99E+02,3.99E+02,3.99E+02,3.99E+02,3.99E+02,3.99E+02,3.99E+02,3.99E+02,3.99E+02,3.99E+02,3.99E+02,3.99E+02,3.99E+02,4.00E+02,4.00E+02,4.00E+02,4.00E+02,4.00E+02,4.00E+02,4.00E+02,4.00E+02,4.00E+02,4.00E+02,4.00E+02,4.01E+02,4.01E+02,4.01E+02,4.01E+02,4.01E+02,4.01E+02,4.01E+02,4.01E+02,4.01E+02,4.01E+02,4.01E+02,4.01E+02,4.00E+02,4.00E+02,4.00E+02,4.00E+02,4.00E+02,4.00E+02,4.00E+02,4.00E+02,4.00E+02,4.00E+02,4.00E+02,4.00E+02,4.00E+02,4.00E+02,4.00E+02,4.00E+02,4.00E+02,4.00E+02,4.00E+02,4.00E+02,4.01E+02,4.01E+02,4.01E+02,4.01E+02,4.01E+02,4.01E+02,4.01E+02,4.01E+02,4.01E+02,4.01E+02,4.01E+02,4.01E+02,4.01E+02,4.01E+02,4.01E+02,4.01E+02,4.01E+02,4.01E+02,0.00E+00,0.00E+00,0.00E+00,0.00E+00,0.00E+00,0.00E+00,0.00E+00,0.00E+00,0.00E+00,0.00E+00,0.00E+00,0.00E+00,0.00E+00,0.00E+00,0.00E+00,0.00E+00,0.00E+00,0.00E+00,0.00E+00,0.00E+00,0.00E+00,0.00E+00,3.40E+02,3.39E+02,3.39E+02,3.38E+02,3.38E+02,3.37E+02,3.37E+02,3.37E+02,3.36E+02,3.36E+02,3.35E+02,3.34E+02,3.34E+02,3.34E+02,3.34E+02,3.33E+02,3.33E+02,3.33E+02,3.32E+02,3.32E+02,3.31E+02,3.30E+02,3.30E+02,3.30E+02,3.30E+02,3.30E+02,3.30E+02,3.30E+02,3.29E+02,3.29E+02,3.29E+02,3.29E+02,3.29E+02,3.29E+02,3.28E+02,3.28E+02,3.28E+02,3.28E+02,3.28E+02,3.28E+02,3.28E+02,3.28E+02,3.27E+02,3.27E+02,3.27E+02,3.27E+02,3.27E+02,3.27E+02,3.27E+02,3.27E+02,3.27E+02,3.27E+02,3.27E+02,3.27E+02,3.27E+02,3.27E+02,3.28E+02,3.28E+02,3.28E+02,3.28E+02,3.28E+02,0.00E+00,0.00E+00,0.00E+00,3.31E+02,3.31E+02,3.31E+02,3.31E+02,3.32E+02,3.32E+02,3.32E+02,3.33E+02,3.33E+02,3.34E+02,3.34E+02,3.34E+02,3.35E+02,3.35E+02,3.36E+02,3.37E+02,3.37E+02,3.38E+02,3.39E+02,3.39E+02,3.40E+02,3.41E+02,3.41E+02,3.42E+02,0.00E+00,3.43E+02,3.43E+02,3.44E+02,3.44E+02,3.45E+02,3.45E+02,3.45E+02,3.97E+02,3.97E+02,3.97E+02,3.97E+02,3.97E+02,3.97E+02,3.97E+02,3.97E+02,3.97E+02,3.97E+02,3.97E+02,3.98E+02,3.98E+02,3.98E+02,3.98E+02,3.98E+02,3.98E+02,3.98E+02,3.98E+02,3.98E+02,3.99E+02,3.99E+02,3.99E+02,3.99E+02,3.99E+02,3.99E+02,3.99E+02,3.99E+02,3.99E+02,3.98E+02,3.98E+02,3.98E+02,3.98E+02,3.98E+02,3.98E+02,3.98E+02,3.98E+02,3.98E+02,3.98E+02,3.98E+02,3.98E+02,3.98E+02,3.98E+02,3.98E+02,3.98E+02,3.98E+02,3.98E+02,3.98E+02,3.98E+02,3.98E+02,3.98E+02,3.98E+02,3.98E+02,3.98E+02,3.98E+02,3.98E+02,3.98E+02,3.98E+02,3.98E+02,3.98E+02,3.98E+02,3.98E+02,3.98E+02,3.98E+02,3.98E+02,3.98E+02,3.98E+02
4.03E+02,4.03E+02,4.03E+02,4.03E+02,4.02E+02,4.02E+02,4.02E+02,4.02E+02,4.02E+02,4.02E+02,4.02E+02,4.02E+02,4.02E+02,4.02E+02,4.01E+02,4.01E+02,4.02E+02,4.02E+02,4.02E+02,4.02E+02,4.01E+02,4.01E+02,4.01E+02,4.01E+02,4.01E+02,4.01E+02,4.01E+02,4.01E+02,4.01E+02,4.01E+02,4.01E+02,4.01E+02,4.01E+02,4.01E+02,4.01E+02,4.01E+02,4.01E+02,4.01E+02,4.01E+02,4.01E+02,4.01E+02,4.01E+02,4.01E+02,4.01E+02,4.01E+02,4.01E+02,4.01E+02,4.01E+02,4.01E+02,4.01E+02,4.01E+02,4.01E+02,4.01E+02,4.01E+02,4.01E+02,4.01E+02,4.01E+02,4.01E+02,4.01E+02,4.01E+02,4.01E+02,4.01E+02,4.01E+02,4.00E+02,4.00E+02,4.00E+02,4.00E+02,4.00E+02,3.99E+02,3.99E+02,3.99E+02,3.99E+02,3.99E+02,3.99E+02,3.99E+02,3.99E+02,3.99E+02,3.99E+02,3.99E+02,3.99E+02,3.99E+02,3.99E+02,3.99E+02,4.00E+02,4.00E+02,4.00E+02,4.00E+02,4.00E+02,4.00E+02,4.00E+02,4.00E+02,4.00E+02,4.00E+02,4.01E+02,4.01E+02,4.01E+02,4.01E+02,4.01E+02,4.01E+02,4.01E+02,4.01E+02,4.01E+02,4.01E+02,4.01E+02,4.01E+02,4.01E+02,4.01E+02,4.01E+02,4.00E+02,4.00E+02,4.00E+02,4.00E+02,4.00E+02,4.00E+02,4.00E+02,4.00E+02,4.00E+02,4.00E+02,4.00E+02,4.00E+02,4.00E+02,4.00E+02,4.00E+02,4.00E+02,4.00E+02,4.00E+02,4.00E+02,4.00E+02,4.01E+02,4.01E+02,4.01E+02,4.01E+02,4.01E+02,4.01E+02,4.01E+02,4.01E+02,4.01E+02,4.01E+02,4.01E+02,4.01E+02,4.01E+02,4.01E+02,4.01E+02,4.01E+02,4.01E+02,4.01E+02,4.01E+02,0.00E+00,0.00E+00,0.00E+00,0.00E+00,0.00E+00,0.00E+00,0.00E+00,0.00E+00,0.00E+00,0.00E+00,0.00E+00,0.00E+00,0.00E+00,0.00E+00,0.00E+00,0.00E+00,0.00E+00,0.00E+00,0.00E+00,0.00E+00,0.00E+00,3.40E+02,3.39E+02,3.39E+02,3.39E+02,3.39E+02,3.38E+02,3.37E+02,3.37E+02,3.36E+02,3.36E+02,3.36E+02,3.35E+02,3.35E+02,3.34E+02,3.34E+02,3.34E+02,3.33E+02,3.33E+02,3.32E+02,3.32E+02,3.32E+02,3.31E+02,3.31E+02,3.31E+02,3.30E+02,3.30E+02,3.30E+02,3.30E+02,3.30E+02,3.30E+02,3.30E+02,3.30E+02,3.30E+02,3.29E+02,3.29E+02,3.29E+02,3.29E+02,3.29E+02,3.29E+02,3.28E+02,3.28E+02,3.28E+02,3.28E+02,3.28E+02,3.28E+02,3.27E+02,3.27E+02,3.27E+02,3.27E+02,3.27E+02,3.27E+02,3.28E+02,3.28E+02,3.27E+02,3.27E+02,3.27E+02,3.28E+02,3.28E+02,3.28E+02,3.28E+02,3.28E+02,3.30E+02,3.30E+02,3.30E+02,3.31E+02,3.31E+02,3.31E+02,3.31E+02,3.32E+02,3.32E+02,3.32E+02,3.33E+02,3.33E+02,3.34E+02,3.34E+02,3.34E+02,3.35E+02,3.35E+02,3.36E+02,3.37E+02,3.37E+02,3.38E+02,3.39E+02,3.39E+02,3.40E+02,3.41E+02,3.41E+02,3.42E+02,0.00E+00,0.00E+00,3.45E+02,3.45E+02,3.45E+02,3.46E+02,3.98E+02,3.98E+02,3.97E+02,3.97E+02,3.97E+02,3.97E+02,3.97E+02,3.97E+02,3.97E+02,3.97E+02,3.97E+02,3.97E+02,3.97E+02,3.98E+02,3.98E+02,3.98E+02,3.98E+02,3.98E+02,3.98E+02,3.98E+02,3.98E+02,3.98E+02,3.99E+02,3.99E+02,3.99E+02,3.99E+02,3.99E+02,3.99E+02,3.99E+02,3.99E+02,3.99E+02,3.98E+02,3.98E+02,3.98E+02,3.98E+02,3.98E+02,3.98E+02,3.98E+02,3.98E+02,3.98E+02,3.98E+02,3.98E+02,3.98E+02,3.98E+02,3.98E+02,3.98E+02,3.98E+02,3.98E+02,3.98E+02,3.98E+02,3.98E+02,3.98E+02,3.98E+02,3.98E+02,3.98E+02,3.98E+02,3.98E+02,3.98E+02,3.98E+02,3.98E+02,3.98E+02,3.98E+02,3.98E+02,3.98E+02,3.98E+02,3.98E+02,3.98E+02,3.98E+02,3.98E+02
4.03E+02,4.03E+02,4.02E+02,4.02E+02,4.02E+02,4.02E+02,4.02E+02,4.02E+02,4.02E+02,4.02E+02,4.01E+02,4.01E+02,4.01E+02,4.01E+02,4.01E+02,4.01E+02,4.01E+02,4.01E+02,4.02E+02,4.02E+02,4.01E+02,4.01E+02,4.01E+02,4.01E+02,4.01E+02,4.01E+02,4.01E+02,4.01E+02,4.01E+02,4.01E+02,4.01E+02,4.01E+02,4.01E+02,4.01E+02,4.01E+02,4.01E+02,4.01E+02,4.01E+02,4.01E+02,4.01E+02,4.01E+02,4.01E+02,4.01E+02,4.01E+02,4.01E+02,4.02E+02,4.01E+02,4.01E+02,4.01E+02,4.01E+02,4.01E+02,4.01E+02,4.01E+02,4.01E+02,4.01E+02,4.01E+02,4.01E+02,4.01E+02,4.01E+02,4.01E+02,4.01E+02,4.01E+02,4.01E+02,4.00E+02,4.00E+02,4.00E+02,4.00E+02,4.00E+02,3.99E+02,3.99E+02,3.99E+02,3.99E+02,3.99E+02,3.99E+02,3.99E+02,3.99E+02,3.99E+02,3.99E+02,3.99E+02,3.99E+02,3.99E+02,3.99E+02,3.99E+02,4.00E+02,4.00E+02,4.00E+02,4.00E+02,4.00E+02,4.00E+02,4.00E+02,4.00E+02,4.00E+02,4.00E+02,4.01E+02,4.01E+02,4.01E+02,4.01E+02,4.01E+02,4.01E+02,4.01E+02,4.01E+02,4.01E+02,4.01E+02,4.01E+02,4.01E+02,4.01E+02,4.01E+02,4.01E+02,4.00E+02,4.00E+02,4.00E+02,4.00E+02,4.00E+02,4.00E+02,4.00E+02,4.00E+02,4.00E+02,4.00E+02,4.00E+02,4.00E+02,4.00E+02,4.00E+02,4.00E+02,4.00E+02,4.00E+02,4.00E+02,4.00E+02,4.00E+02,4.01E+02,4.01E+02,4.01E+02,4.01E+02,4.01E+02,4.01E+02,4.01E+02,4.01E+02,4.01E+02,4.01E+02,4.01E+02,4.01E+02,4.01E+02,4.01E+02,4.01E+02,4.01E+02,4.01E+02,4.01E+02,4.01E+02,0.00E+00,0.00E+00,0.00E+00,0.00E+00,0.00E+00,0.00E+00,0.00E+00,0.00E+00,0.00E+00,0.00E+00,0.00E+00,0.00E+00,0.00E+00,0.00E+00,0.00E+00,0.00E+00,0.00E+00,0.00E+00,0.00E+00,0.00E+00,0.00E+00,3.40E+02,3.39E+02,3.39E+02,3.39E+02,3.39E+02,3.38E+02,3.37E+02,3.37E+02,3.37E+02,3.37E+02,3.36E+02,3.36E+02,3.36E+02,3.35E+02,3.35E+02,3.34E+02,3.34E+02,3.34E+02,3.32E+02,3.32E+02,3.32E+02,3.31E+02,3.31E+02,3.31E+02,3.30E+02,3.30E+02,3.30E+02,3.30E+02,3.30E+02,3.30E+02,3.30E+02,3.30E+02,3.30E+02,3.29E+02,3.29E+02,3.29E+02,3.29E+02,3.29E+02,3.29E+02,3.28E+02,3.28E+02,3.28E+02,3.28E+02,3.28E+02,3.28E+02,3.27E+02,3.27E+02,3.27E+02,3.27E+02,3.27E+02,3.27E+02,3.28E+02,3.28E+02,3.28E+02,3.28E+02,3.28E+02,3.28E+02,3.29E+02,3.29E+02,3.29E+02,3.29E+02,3.30E+02,3.30E+02,3.30E+02,3.31E+02,3.32E+02,3.32E+02,3.32E+02,3.33E+02,3.33E+02,3.33E+02,3.34E+02,3.34E+02,3.35E+02,3.35E+02,3.35E+02,3.36E+02,3.36E+02,3.37E+02,3.38E+02,3.38E+02,3.39E+02,3.40E+02,3.40E+02,3.40E+02,3.41E+02,3.41E+02,3.43E+02,0.00E+00,0.00E+00,0.00E+00,3.98E+02,3.98E+02,3.98E+02,3.98E+02,3.98E+02,3.98E+02,3.98E+02,3.97E+02,3.97E+02,3.98E+02,3.97E+02,3.97E+02,3.97E+02,3.97E+02,3.97E+02,3.97E+02,3.98E+02,3.98E+02,3.98E+02,3.98E+02,3.98E+02,3.98E+02,3.98E+02,3.98E+02,3.98E+02,3.98E+02,3.98E+02,3.98E+02,3.98E+02,3.98E+02,3.98E+02,3.98E+02,3.98E+02,3.98E+02,3.98E+02,3.98E+02,3.98E+02,3.98E+02,3.98E+02,3.98E+02,3.98E+02,3.98E+02,3.98E+02,3.98E+02,3.98E+02,3.98E+02,3.98E+02,3.98E+02,3.98E+02,3.98E+02,3.98E+02,3.98E+02,3.98E+02,3.98E+02,3.98E+02,3.98E+02,3.98E+02,3.98E+02,3.98E+02,3.98E+02,3.98E+02,3.98E+02,3.98E+02,3.98E+02,3.98E+02,3.98E+02,3.98E+02,3.98E+02,3.98E+02,3.98E+02,3.98E+02,3.98E+02
4.03E+02,4.03E+02,4.02E+02,4.02E+02,4.02E+02,4.02E+02,4.01E+02,4.01E+02,4.01E+02,4.01E+02,4.01E+02,4.01E+02,4.01E+02,4.01E+02,4.01E+02,4.01E+02,4.01E+02,4.01E+02,4.01E+02,4.02E+02,4.01E+02,4.01E+02,4.01E+02,4.01E+02,4.01E+02,4.01E+02,4.01E+02,4.01E+02,4.01E+02,4.01E+02,4.01E+02,4.01E+02,4.01E+02,4.01E+02,4.01E+02,4.01E+02,4.01E+02,4.01E+02,4.01E+02,4.01E+02,4.01E+02,4.01E+02,4.01E+02,4.01E+02,4.01E+02,4.02E+02,4.01E+02,4.01E+02,4.01E+02,4.01E+02,4.01E+02,4.01E+02,4.01E+02,4.01E+02,4.01E+02,4.01E+02,4.01E+02,4.01E+02,4.01E+02,4.01E+02,4.01E+02,4.01E+02,4.00E+02,4.00E+02,4.00E+02,4.00E+02,4.00E+02,4.00E+02,3.99E+02,3.99E+02,3.99E+02,3.99E+02,3.99E+02,3.99E+02,3.99E+02,3.99E+02,3.99E+02,3.99E+02,3.99E+02,3.99E+02,3.99E+02,3.99E+02,3.99E+02,4.00E+02,4.00E+02,4.00E+02,4.00E+02,4.00E+02,4.00E+02,4.00E+02,4.00E+02,4.01E+02,4.01E+02,4.01E+02,4.01E+02,4.01E+02,4.01E+02,4.01E+02,4.01E+02,4.01E+02,4.01E+02,4.01E+02,4.01E+02,4.01E+02,4.01E+02,4.01E+02,4.00E+02,4.00E+02,4.00E+02,4.00E+02,4.00E+02,4.00E+02,4.00E+02,4.00E+02,4.00E+02,4.00E+02,4.00E+02,4.00E+02,4.00E+02,4.00E+02,4.00E+02,4.00E+02,4.00E+02,4.00E+02,4.00E+02,4.00E+02,4.00E+02,4.00E+02,4.01E+02,4.01E+02,4.01E+02,4.01E+02,4.01E+02,4.01E+02,4.01E+02,4.01E+02,4.01E+02,4.01E+02,4.01E+02,4.01E+02,4.01E+02,4.01E+02,4.01E+02,4.01E+02,4.01E+02,4.01E+02,4.01E+02,0.00E+00,0.00E+00,0.00E+00,0.00E+00,0.00E+00,0.00E+00,0.00E+00,0.00E+00,0.00E+00,0.00E+00,0.00E+00,0.00E+00,0.00E+00,0.00E+00,0.00E+00,0.00E+00,0.00E+00,0.00E+00,0.00E+00,0.00E+00,0.00E+00,3.40E+02,3.39E+02,3.39E+02,3.39E+02,3.39E+02,3.38E+02,3.37E+02,3.37E+02,3.37E+02,3.37E+02,3.36E+02,3.36E+02,3.36E+02,3.35E+02,3.35E+02,3.34E+02,3.34E+02,3.34E+02,3.33E+02,3.33E+02,3.33E+02,3.32E+02,3.32E+02,3.32E+02,3.31E+02,3.31E+02,3.31E+02,3.31E+02,3.31E+02,3.30E+02,3.30E+02,3.30E+02,3.30E+02,3.30E+02,3.30E+02,3.30E+02,3.30E+02,3.29E+02,3.29E+02,3.29E+02,3.29E+02,3.28E+02,3.28E+02,3.28E+02,3.28E+02,3.28E+02,3.28E+02,3.28E+02,3.28E+02,3.28E+02,3.28E+02,3.28E+02,3.28E+02,3.28E+02,3.29E+02,3.29E+02,3.29E+02,3.30E+02,3.30E+02,3.30E+02,3.31E+02,3.31E+02,3.31E+02,3.31E+02,3.32E+02,3.33E+02,3.33E+02,3.33E+02,3.34E+02,3.34E+02,3.35E+02,3.35E+02,3.35E+02,3.36E+02,3.36E+02,3.36E+02,3.37E+02,3.38E+02,3.38E+02,3.38E+02,3.38E+02,3.39E+02,3.40E+02,3.40E+02,3.40E+02,3.41E+02,3.41E+02,3.43E+02,0.00E+00,0.00E+00,0.00E+00,3.98E+02,3.98E+02,3.98E+02,3.98E+02,3.98E+02,3.98E+02,3.98E+02,3.97E+02,3.97E+02,3.97E+02,3.97E+02,3.97E+02,3.97E+02,3.97E+02,3.97E+02,3.97E+02,3.97E+02,3.98E+02,3.98E+02,3.98E+02,3.98E+02,3.98E+02,3.98E+02,3.98E+02,3.98E+02,3.98E+02,3.98E+02,3.98E+02,3.98E+02,3.98E+02,3.98E+02,3.98E+02,3.98E+02,3.98E+02,3.98E+02,3.98E+02,3.98E+02,3.98E+02,3.98E+02,3.98E+02,3.98E+02,3.98E+02,3.98E+02,3.98E+02,3.98E+02,3.98E+02,3.98E+02,3.98E+02,3.98E+02,3.98E+02,3.98E+02,3.98E+02,3.98E+02,3.98E+02,3.98E+02,3.98E+02,3.98E+02,3.98E+02,3.98E+02,3.98E+02,3.98E+02,3.98E+02,3.98E+02,3.98E+02,3.98E+02,3.98E+02,3.98E+02,3.98E+02,3.98E+02,3.98E+02,3.98E+02,3.98E+02
4.03E+02,4.03E+02,4.02E+02,4.02E+02,4.02E+02,4.02E+02,4.01E+02,4.01E+02,4.01E+02,4.01E+02,4.01E+02,4.01E+02,4.01E+02,4.01E+02,4.01E+02,4.01E+02,4.01E+02,4.01E+02,4.01E+02,4.01E+02,4.01E+02,4.01E+02,4.01E+02,4.01E+02,4.01E+02,4.01E+02,4.01E+02,4.01E+02,4.01E+02,4.01E+02,4.01E+02,4.01E+02,4.01E+02,4.01E+02,4.01E+02,4.01E+02,4.01E+02,4.01E+02,4.01E+02,4.01E+02,4.01E+02,4.01E+02,4.01E+02,4.01E+02,4.01E+02,4.01E+02,4.01E+02,4.01E+02,4.01E+02,4.01E+02,4.01E+02,4.01E+02,4.01E+02,4.01E+02,4.01E+02,4.01E+02,4.01E+02,4.01E+02,4.01E+02,4.01E+02,4.01E+02,4.01E+02,4.00E+02,4.00E+02,4.00E+02,4.00E+02,4.00E+02,4.00E+02,3.99E+02,3.99E+02,3.99E+02,3.99E+02,3.99E+02,3.99E+02,3.99E+02,3.99E+02,3.99E+02,3.99E+02,3.99E+02,3.99E+02,3.99E+02,3.99E+02,3.99E+02,4.00E+02,4.00E+02,4.00E+02,4.00E+02,4.00E+02,4.00E+02,4.00E+02,4.01E+02,4.01E+02,4.01E+02,4.01E+02,4.01E+02,4.01E+02,4.01E+02,4.01E+02,4.01E+02,4.01E+02,4.01E+02,4.01E+02,4.01E+02,4.01E+02,4.01E+02,4.01E+02,4.00E+02,4.00E+02,4.00E+02,4.00E+02,4.00E+02,4.00E+02,4.00E+02,4.00E+02,4.00E+02,4.00E+02,4.00E+02,4.00E+02,4.00E+02,4.00E+02,4.00E+02,4.00E+02,4.00E+02,4.00E+02,4.00E+02,4.00E+02,4.00E+02,4.00E+02,4.01E+02,4.01E+02,4.01E+02,4.01E+02,4.01E+02,4.01E+02,4.01E+02,4.01E+02,4.01E+02,4.01E+02,4.01E+02,4.01E+02,4.01E+02,4.01E+02,4.01E+02,4.01E+02,4.01E+02,4.01E+02,4.01E+02,0.00E+00,0.00E+00,0.00E+00,0.00E+00,0.00E+00,0.00E+00,0.00E+00,0.00E+00,0.00E+00,0.00E+00,0.00E+00,0.00E+00,0.00E+00,0.00E+00,0.00E+00,0.00E+00,0.00E+00,0.00E+00,0.00E+00,0.00E+00,0.00E+00,0.00E+00,0.00E+00,0.00E+00,3.39E+02,3.39E+02,3.38E+02,3.38E+02,3.38E+02,3.37E+02,3.37E+02,3.37E+02,3.36E+02,3.36E+02,3.36E+02,3.35E+02,3.35E+02,3.35E+02,3.35E+02,3.34E+02,3.33E+02,3.33E+02,3.33E+02,3.33E+02,3.33E+02,3.32E+02,3.32E+02,3.32E+02,3.32E+02,3.31E+02,3.31E+02,3.31E+02,3.31E+02,3.31E+02,3.31E+02,3.31E+02,3.31E+02,3.30E+02,3.30E+02,3.30E+02,3.29E+02,3.29E+02,3.29E+02,3.28E+02,3.28E+02,3.28E+02,3.28E+02,3.28E+02,3.28E+02,3.28E+02,3.28E+02,3.28E+02,3.28E+02,3.28E+02,3.28E+02,3.29E+02,3.29E+02,3.29E+02,3.30E+02,3.30E+02,3.30E+02,3.31E+02,3.31E+02,3.31E+02,3.31E+02,3.32E+02,3.33E+02,3.33E+02,3.33E+02,3.34E+02,3.34E+02,3.35E+02,3.35E+02,3.35E+02,3.36E+02,3.36E+02,3.36E+02,3.37E+02,3.38E+02,3.38E+02,3.38E+02,3.38E+02,3.40E+02,3.40E+02,3.40E+02,3.41E+02,3.42E+02,3.42E+02,3.43E+02,3.44E+02,3.44E+02,3.98E+02,3.98E+02,3.98E+02,3.98E+02,3.98E+02,3.98E+02,3.98E+02,3.98E+02,3.97E+02,3.97E+02,3.97E+02,3.97E+02,3.98E+02,3.97E+02,3.97E+02,3.97E+02,3.97E+02,3.97E+02,3.98E+02,3.98E+02,3.98E+02,3.98E+02,3.98E+02,3.98E+02,3.98E+02,3.98E+02,3.98E+02,3.98E+02,3.98E+02,3.98E+02,3.98E+02,3.98E+02,3.98E+02,3.98E+02,3.98E+02,3.98E+02,3.98E+02,3.98E+02,3.98E+02,3.98E+02,3.98E+02,3.98E+02,3.98E+02,3.98E+02,3.98E+02,3.98E+02,3.98E+02,3.98E+02,3.98E+02,3.98E+02,3.98E+02,3.98E+02,3.98E+02,3.98E+02,3.98E+02,3.98E+02,3.98E+02,3.98E+02,3.98E+02,3.97E+02,3.97E+02,3.97E+02,3.97E+02,3.97E+02,3.97E+02,3.97E+02,3.97E+02,3.97E+02,3.97E+02,3.97E+02,3.97E+02,3.97E+02,3.97E+02
4.03E+02,4.02E+02,4.02E+02,4.02E+02,4.02E+02,4.02E+02,4.01E+02,4.01E+02,4.01E+02,4.01E+02,4.01E+02,4.01E+02,4.01E+02,4.01E+02,4.00E+02,4.00E+02,4.01E+02,4.01E+02,4.01E+02,4.01E+02,4.01E+02,4.01E+02,4.01E+02,4.01E+02,4.01E+02,4.01E+02,4.01E+02,4.01E+02,4.01E+02,4.01E+02,4.01E+02,4.01E+02,4.01E+02,4.01E+02,4.01E+02,4.01E+02,4.01E+02,4.01E+02,4.01E+02,4.01E+02,4.01E+02,4.01E+02,4.01E+02,4.01E+02,4.01E+02,4.01E+02,4.01E+02,4.01E+02,4.01E+02,4.01E+02,4.01E+02,4.01E+02,4.01E+02,4.01E+02,4.01E+02,4.01E+02,4.01E+02,4.01E+02,4.01E+02,4.01E+02,4.01E+02,4.01E+02,4.01E+02,4.01E+02,4.01E+02,4.00E+02,4.00E+02,4.00E+02,3.99E+02,3.99E+02,3.99E+02,3.99E+02,3.99E+02,3.99E+02,3.99E+02,3.99E+02,3.99E+02,3.99E+02,3.99E+02,3.99E+02,3.99E+02,3.99E+02,3.99E+02,4.00E+02,4.00E+02,4.00E+02,4.00E+02,4.00E+02,4.00E+02,4.00E+02,4.01E+02,4.01E+02,4.01E+02,4.01E+02,4.01E+02,4.01E+02,4.01E+02,4.01E+02,4.01E+02,4.01E+02,4.01E+02,4.01E+02,4.01E+02,4.01E+02,4.01E+02,4.00E+02,4.00E+02,4.00E+02,4.00E+02,4.00E+02,4.00E+02,4.00E+02,4.00E+02,4.00E+02,4.00E+02,4.00E+02,4.00E+02,4.00E+02,4.00E+02,4.00E+02,4.00E+02,4.00E+02,4.00E+02,4.00E+02,4.00E+02,4.00E+02,4.00E+02,4.00E+02,4.01E+02,4.01E+02,4.01E+02,4.01E+02,4.01E+02,4.01E+02,4.01E+02,4.01E+02,4.01E+02,4.01E+02,4.01E+02,4.01E+02,4.01E+02,4.01E+02,4.01E+02,4.01E+02,4.01E+02,4.01E+02,4.01E+02,0.00E+00,0.00E+00,0.00E+00,0.00E+00,0.00E+00,0.00E+00,0.00E+00,0.00E+00,0.00E+00,0.00E+00,0.00E+00,0.00E+00,0.00E+00,0.00E+00,0.00E+00,0.00E+00,0.00E+00,0.00E+00,0.00E+00,0.00E+00,0.00E+00,0.00E+00,0.00E+00,0.00E+00,0.00E+00,0.00E+00,0.00E+00,3.38E+02,3.38E+02,3.37E+02,3.37E+02,3.37E+02,3.36E+02,3.36E+02,3.36E+02,3.35E+02,3.35E+02,3.35E+02,3.35E+02,3.34E+02,3.33E+02,3.33E+02,3.33E+02,3.33E+02,3.33E+02,3.32E+02,3.32E+02,3.32E+02,3.32E+02,3.31E+02,3.31E+02,3.31E+02,3.31E+02,3.31E+02,3.31E+02,3.31E+02,3.31E+02,3.30E+02,3.30E+02,3.30E+02,3.29E+02,3.29E+02,3.29E+02,3.29E+02,3.29E+02,3.29E+02,3.29E+02,3.29E+02,3.29E+02,3.29E+02,3.29E+02,3.29E+02,3.29E+02,3.29E+02,3.29E+02,3.30E+02,3.30E+02,3.30E+02,3.31E+02,3.31E+02,3.31E+02,3.31E+02,3.31E+02,3.32E+02,3.33E+02,3.33E+02,3.34E+02,3.35E+02,3.35E+02,3.35E+02,3.35E+02,3.35E+02,3.36E+02,3.36E+02,3.36E+02,3.37E+02,3.37E+02,3.37E+02,3.38E+02,3.38E+02,3.39E+02,3.40E+02,3.40E+02,3.41E+02,3.41E+02,3.41E+02,3.42E+02,3.42E+02,3.43E+02,3.44E+02,3.44E+02,3.98E+02,3.98E+02,3.98E+02,3.98E+02,3.98E+02,3.98E+02,3.98E+02,3.98E+02,3.97E+02,3.97E+02,3.97E+02,3.97E+02,3.98E+02,3.97E+02,3.97E+02,3.97E+02,3.97E+02,3.97E+02,3.97E+02,3.97E+02,3.98E+02,3.98E+02,3.98E+02,3.98E+02,3.98E+02,3.98E+02,3.98E+02,3.98E+02,3.98E+02,3.98E+02,3.98E+02,3.98E+02,3.98E+02,3.98E+02,3.98E+02,3.98E+02,3.98E+02,3.98E+02,3.98E+02,3.98E+02,3.98E+02,3.98E+02,3.98E+02,3.98E+02,3.98E+02,3.98E+02,3.98E+02,3.98E+02,3.98E+02,3.98E+02,3.98E+02,3.98E+02,3.98E+02,3.98E+02,3.98E+02,3.98E+02,3.98E+02,3.98E+02,3.98E+02,3.97E+02,3.97E+02,3.97E+02,3.97E+02,3.97E+02,3.97E+02,3.97E+02,3.97E+02,3.97E+02,3.97E+02,3.97E+02,3.97E+02,3.97E+02,3.97E+02
